-0.9640126391870515 -0.1789860484988836 -0.1965798207608579 -0.21372785612513673 0.9764715173016044 -0.028701557707817744
-0.9782413274842657 -0.1852888116967054 -0.09333788867252453 -0.7036186387092848 0.6297178050081008 0.3292055548083486
0.03652551337056228 0.9946861968376738 0.096256203403319 -0.9253774241847689 0.026180444423813332 -0.3781417817947839
0.8865202340976752 0.46265325862559337 -0.005816942368885695 0.16003411005391874 0.9846390797184724 0.06982095896226204
0.9998182683062241 0.017954969135102337 0.00640698404095842 0.5500281116191954 0.8321051708376479 0.07120436148067381
-0.9932470387993163 -0.09168529166184809 0.07109238503012312 0.027112140812833006 -0.988777781852496 -0.14691300124700582
0.05714018898142865 0.9977381062542112 0.035407204513020735 -0.9533877729864443 0.027193923218108523 -0.3005199575069111
-0.996587110037739 0.023310144152275718 -0.07918818905763436 -0.058362818571959366 -0.927548682029298 -0.36911681602718754
0.14829401698477596 0.9870524243254033 0.061126067760513894 0.9982760862681743 -0.03222566436308312 -0.04905468521410034
0.9289820781883869 -0.36602366638436534 0.054945191339484604 0.15517451543517882 0.9866614048347758 -0.04919493844821881
-0.09351853880958641 0.9937058329045598 0.061668472904515166 -0.9826013184625084 0.16790101999383938 -0.07939708080760038
0.8420256282257056 -0.48549346355798784 0.23513599948449973 0.46390498632275434 0.57565745045348 0.6733577529087226
0.9993384981534355 -0.006842753755996585 -0.03571754232125992 -0.049116622597298716 -0.8936112420808412 -0.4461462825255533
-0.01619137193005158 0.9956096964929393 -0.09219095250760687 -0.9534713240722171 0.06884482254947794 -0.2935180140640505
-0.0883546642327865 -0.9951887574665842 0.04234135473066216 -0.9537571222906657 -0.06384597919375942 -0.2937193262633875
-0.07981943409954874 -0.9959553854875727 0.04125200671880478 0.9754903884589518 -0.08954829096948326 0.2009965313348668
0.9998285535155688 -0.0019523820677040424 0.018413358716630253 0.04316939212240102 -0.9713606659957025 -0.23365543036738512
-0.9974954305110261 0.022514854756638454 0.06705182640995215 0.07218854997555159 -0.9966940657048967 -0.03727938627539666
-0.09219963383673237 -0.9954236472975939 0.0251195127565781 -0.8972759207441333 0.049120145931345637 -0.4387289975787457
-0.9036406510101299 0.427593658843678 -0.024438427909031876 0.3946023780986939 -0.9171417615902377 0.05603527769192276
-0.6559817734274224 0.7533973356032707 -0.04561104731210144 -0.9920443417802951 -0.12565315920889378 0.007701137742270558
0.7130912868876869 -0.6812482103836242 0.16553456561688862 0.24284000704469136 -0.9686888347334219 0.051678549141199875
-0.9988787680734124 -0.0297762083906745 0.03680467505653382 0.035021924566184574 -0.9484883447738844 -0.31487032986259156
-0.9949640745308417 -0.031406676777007016 0.09518461559942598 0.04770663207580516 -0.9513029727896716 -0.30454348001150333
0.014365009974040535 -0.998798809397539 -0.04684639617413622 -0.07186426119956153 -0.9960594759883261 -0.051971610097267654
-0.014352762276768563 0.9998867007344727 -0.00453694934482913 0.949968768607596 -0.1150957769708263 0.29036580513836296
-0.10137370112664466 -0.9940094472473731 -0.040848396576336855 0.9982906288591094 -0.024403803078920663 -0.053106258834238425
-0.9903981940827644 0.12103755975272841 -0.06679316047847897 0.03874220272782016 0.9981876615630767 -0.046048170767502145
0.9999958524774005 0.0002750155578988535 0.0028669486288007426 -0.027789260135879405 0.9985324054256862 -0.04648432354991717
-0.7660841925865886 0.642736412303804 0.002216792229581991 -0.8545825859330386 0.519167315079212 0.012405755657872027
0.9951841777410275 0.09802204702941786 0.0003614831635432603 0.024892822327919756 0.9825120606999956 0.1845274992395406
0.9986011162970007 -0.04654684918434673 0.025083886489012282 0.04710704823173701 0.9678053684796092 0.24725228967380847
0.9254904923071251 -0.36956887526920484 0.08298310117951843 -0.5563167299753213 -0.8309142362302298 -0.009655463712282568
-0.0007092698495873644 -0.9991963056109131 0.04007792147533717 -0.9170674899544413 -0.39449533822809313 -0.05797108749163723
0.04036269643863801 0.9973143037391708 -0.061114910565715774 -0.9995050888181255 0.009178467654749108 0.03008875467980884
0.992366380632007 0.12316282063647532 0.006315552564740567 0.3444939053198849 0.9371405152653044 -0.055602192814079895
-0.2396590549100325 -0.962313450622155 -0.12851599181156922 0.5826700419715787 -0.7698775277276614 0.2603540176159817
0.8722134046010882 0.12562884864932208 0.47271679600075994 0.5786536085115188 -0.7731741652954274 0.25954134829794834
-0.9961541608934471 -0.08184271072683932 0.031283516994658735 -0.03444820379293391 -0.9701818018910552 -0.23991788706735837
-0.9984979075311433 -0.034761630363708 0.042350415704991345 0.059820390255217376 -0.9863753371608598 -0.1532488667185287
0.9979506449330743 -0.04789806475048819 0.04242977340051358 0.05248529958303893 0.9653973910712674 0.25544700162747835
0.9730407396475765 -0.23006512064109014 -0.01617897557010144 -0.017388724146461313 -0.9776937188513921 -0.20931465402855431
0.9869774744233192 0.156138324210833 -0.038681891029256656 0.25032359321923836 -0.96699776857207 0.04747014066175254
0.9973102761471073 -0.06760005738635368 -0.028327466048736604 0.06975240057676987 -0.9962452374422496 0.051283813113041164
-0.9970576317841675 -0.05775449051732041 0.0504033503453117 0.20104046332899683 0.9772859891522425 -0.06704347478453908
0.9991870518049847 0.031596679524342385 -0.025037678572475422 -0.06369534611002772 0.9895914329749249 0.1290414610369807
0.12983023642691163 0.9780223529039044 0.1631452939242902 0.8565788764189884 0.017679133216920304 0.5157131729183209
-0.039780429532255496 0.9981681031475279 0.045584594822102364 0.9932986889761471 -0.07870307496548146 0.08463770122850214
0.8218966111703064 -0.5633032605850273 0.0847077160655568 0.8896808829062574 0.20145222976842908 0.40973763033491384
0.998316161903375 0.027646607700904574 -0.050995156291029756 0.005155982322752202 -0.9333616275747434 -0.35890038731842205
0.9986843625500658 0.007732034513191301 -0.05069279672947232 -0.04337160117743374 -0.962714883973357 -0.26701864426940575
0.9992113060228236 0.020175015644165434 -0.034201383888969886 0.001155540949444645 -0.9567184710795948 -0.2910127691704207
0.993454930410586 0.09247374717278085 -0.06705152740036942 -0.014095631316291901 0.9730842992768949 0.23001795512218087
0.9981739917161403 0.037534620744621404 -0.04732688989384474 -0.001264300667289707 0.9571397241618903 0.2896238076801062
-0.9991714128256878 0.02903416027577429 0.028522014813119917 0.27065026528780567 0.9605357979181164 -0.06418266757815318
-0.10959790104061809 -0.9629477267467268 -0.2464142358728528 -0.9072792553713158 0.3533528950134718 -0.22800457091573617
-0.9954890525287572 -0.034490387674873474 -0.08838528980228738 0.01238175335812113 -0.9703250482077642 -0.24148704521025247
0.06011161819932581 -0.9954637559284942 -0.0737462133956296 0.8999855888899464 0.014669334922463207 0.43567275609492623
-0.5790021889272874 0.8152531816478981 0.010895642724926428 0.797309992060955 0.6035127799096052 -0.00831270386459778
-0.9467561193747887 0.3217465539153613 0.011489363340957487 0.33186099251309 0.941634438088711 -0.0565054568478501
-0.992654124300862 0.1209445310256535 0.0031952970868857327 0.1128086242242883 0.9925796522066506 -0.045385551951561603
0.10296694098691161 -0.9946584281257804 -0.007240194897203431 0.9812188217092922 -0.1853644884219509 -0.053381929109921115
0.821576734217171 -0.5700950835516385 -0.0018070703633540515 -0.6110888111568774 -0.7912259882790678 -0.02306296491535473
0.9999263481051653 -0.006243348983058697 0.010407639431857787 -0.26817162379738957 -0.9622754285587753 -0.04593451623666646
0.9250846565431651 0.37293887154589067 -0.07165874907149737 0.016232336144807135 -0.9983288553207404 0.05546176969103988
-0.13724476215286352 0.9900671584874512 0.03051060383191528 -0.9456248486451558 -0.32224341699107495 -0.044190788980763736
0.45635878518954576 -0.8893655870165218 -0.027667884109192808 -0.8202629846297519 -0.5691855238360287 -0.05653738145507867
-0.9946741654360359 0.09681896052729988 0.03534676076444188 0.10622187814748392 -0.9937207115890364 0.03515764442905981
-0.9988992250642714 -0.016427381945484192 0.04393721985304959 0.0560112766833747 0.997973538059738 -0.030191956160991566
0.9983333585119387 0.03403631051127531 -0.046605094668424295 -0.09939536366045655 0.9946684609190488 0.02748116692820562
-0.9988409457243486 -0.04776761012596641 -0.005917817785510845 0.04052251948140637 -0.952131820872624 -0.302989968640317
-0.30064474045217504 -0.9536585157945507 -0.012172727343495128 0.9984223148589021 0.028558062000989478 -0.04834581974213334
0.9990501052605821 -0.014049026675600778 0.0412493882171383 -0.023049717077813857 -0.9899742467387275 -0.13935458850257487
0.06160268667449612 -0.9980516273885194 -0.00990242705664306 -0.9983651505613723 -0.03149846684926612 0.0476956259075602
0.2507701552496732 -0.9675313996404958 -0.03158037279320095 0.9791132897625908 0.19722696775464013 -0.049383084154262784
0.9919263883353638 0.11946806021027435 -0.042537309665225884 -0.5264055405449136 0.8502145802561331 -0.00568985092112218
0.9985411756478165 -0.052381675852362794 -0.013102693264150133 0.0708151957190702 0.9962368936305258 -0.04997259073402491
0.3652696154129701 -0.9309017613633817 0.0001369182769861665 -0.5275129443484118 -0.8495464097286773 0.0009956214058811665
0.23532850579853268 -0.9718718869585323 0.009248226764740906 0.15841869948356438 0.9873129670153356 -0.010799111876026148
-0.9988281009362409 -0.04834371861956793 -0.0023042678087760275 -0.9868648611671933 0.16142832554123865 -0.006216229275712292
-0.9977391269186833 0.04303551721311202 0.05161955902314445 -0.15483504892050873 -0.985980062164292 0.06220469950319244
0.9531216037377469 0.29479891835386623 -0.06821148162718348 0.24224448180261182 -0.9692525563978627 0.04320987100642671
-0.997555047073683 0.05470563892788424 0.04348817226917982 0.07070425319023843 0.9960494238527049 -0.053725727761522714
0.9888755131466623 0.14351542993571192 -0.0390965582793813 -0.010611768514481017 0.9687107674933553 0.24796539942385074
0.10669097307021243 -0.9941226653251849 0.018361986604985427 -0.8501019777714759 0.03598840424693353 -0.5253869641976134
-0.09614337522684409 0.9938647601701495 -0.05467439887115006 0.9965808377672118 0.08219541108260851 -0.008399297123165209
-0.10222546936342877 -0.9944832537512627 0.02351619488199845 -0.8983584583497983 0.03875821169288793 -0.4375498615446507
-0.9970374130647524 0.011719676614990017 0.07602003768209016 -0.030315251646484607 -0.8706152585325636 -0.49102958885171855
-0.9975484750232623 0.06905031916694038 0.011361927728492021 -0.096279662019282 -0.9937182537114477 0.05704611224372465
-0.9982319846535702 -0.04455932235928638 0.03933664456299666 -0.11976781408872537 0.9927117726373317 -0.013379356324390981
-0.9779117893823573 0.1990220241961225 -0.06386521801320472 0.10318182544751267 -0.9904204811045759 -0.09176481627453606
-0.997690128783366 0.019773254367522912 -0.0649878861015469 0.07037732524403656 -0.9694512928331873 -0.23497068522595962
-0.9982925984290165 -0.04540322382279555 0.0367482678277409 0.0026685989671047065 0.9907858353103722 0.13541162109612567
0.0742471358085923 0.9932075755774095 0.08958836218987919 0.9836563363035391 -0.14004862212411603 0.11316622946371997
-0.1719211344266357 0.9847267532935421 0.027501725135305844 -0.9485809595556481 -0.3130757027146021 0.04666655695724478
0.9776371234143854 0.20794583791583363 0.031371697683227756 -0.30479744389105895 0.94954918735511 -0.07385701720707884
0.1451874169716841 0.9889598719822696 0.029647690667288496 -0.9506738650064678 0.0440330966108226 -0.30705095472335897
-0.1486516462937952 0.9872302444022911 -0.05726371094800788 0.9794774356898743 0.19099792485847014 0.06437193234746327
-0.9013714003429463 -0.43143491499431685 0.037329783921726235 -0.33820625875981175 -0.9394311431555411 0.055548661596515045
0.9954143887919178 -0.08664429605237174 0.040533449737242946 -0.03341039298617577 -0.931974753955761 -0.36098033690162146
-0.9980920943499456 -0.011138173445115902 -0.060729830301474295 0.012821074042233458 0.9285752435002644 0.37092268361321346
-0.9325038570636642 0.3545839467607439 0.06860598560594389 -0.16360116145066475 -0.983994171645894 -0.07064085318641376
0.04852757133256302 0.9975945596978043 0.049499184659012235 -0.9120203560222677 -0.04462188581380702 -0.4077103843507494
0.9392849063253101 0.3430921337917977 -0.005626053647504395 0.07051371310566522 0.9951542626817179 0.06852597850784968
0.4299532504774361 0.8272996823506484 0.3615459002483687 0.6961448846525998 -0.674539186300883 -0.24572176484097058
0.9062757015599641 0.42116198186145404 0.03587391526621071 -0.3725702864578839 0.9245830860741557 -0.0796084078114902
-0.022449854405249214 -0.9980891427845215 -0.05756793458898877 0.9528229462941681 -0.016186408522806835 0.3030947594308316
0.4707009682590493 0.8371097554032236 0.27872541306588516 0.8574743092859786 -0.031074201731680698 0.5135875805559095
0.03960084368157825 -0.9983600653536152 0.04133948580754821 0.9578203728169579 0.07832674435806895 0.27648698800314186
-0.14251118379870598 -0.9897397519045796 -0.010285231750079197 0.890152093017819 0.02390431774485392 0.45503608086518715
0.13040482866414202 -0.991429188845589 -0.00792112151487234 0.9930727459666986 0.10345835113763036 -0.055703597711851995
-0.17177652362816787 0.9838119661015284 0.05105723538996811 0.9978915156330085 -0.004495149204826098 0.06474810160370471
-0.997465797825439 0.013460906678525869 0.06986262348246434 0.007527993303724285 -0.916221052712569 -0.4006024361921567
-0.9960487258145037 -0.03297944476413213 0.08245781967984094 0.04124558143309722 -0.8956316636374488 -0.4428800346620531
-0.3998435812780596 -0.8974394220667716 -0.18635341218017695 -0.7097952106170253 0.5459015970559259 -0.44517660014529314
0.03354604856953998 -0.9939176620494254 0.10489205733311915 0.8916424212431252 -0.057441498902481646 0.44908158150110494
0.996583928196752 0.01280702989172448 -0.08158709484522318 -0.01428154936933828 -0.8837571370652418 -0.4677278696356019
0.03294791545601503 -0.9993693184673517 0.01324387304395846 -0.9509841503985983 0.006370844360390184 -0.30917399313783117
0.048768546056529395 -0.9985771861870281 0.021569240652600852 0.9782105428150554 0.0538293513589949 0.20051567234943163
-0.014924615571983423 0.9996039028487854 0.02385986713090543 -0.997823657223467 0.02855535443354613 0.05943518165497479
0.9809725293455445 0.1831431204051507 -0.06443208919218373 0.9135794982881542 -0.40568760724268116 -0.028108106255536003
0.11236023934615975 0.9918816018032144 0.05954884229238614 -0.9806423059044137 0.03489204612751915 -0.1926738513330477
-0.06565557992815453 0.996893739222644 0.04349962669946408 -0.9730712784130203 -0.047679290309597874 -0.22551933931089682
-0.05541618886139019 -0.9957430276639033 0.07365370914490113 -0.9765489381837875 -0.07292321022348554 -0.20256943684282272
-0.0043226986068076075 0.9983323116310129 -0.057566568685590916 -0.9878815126547007 -0.09714482721914434 -0.12104957455366314
0.46544255870808937 0.8824077822345339 0.06870029399644696 0.3425986750243423 -0.9391707963836802 -0.02417360319871935
0.9990811867219456 0.020066605734250363 -0.03786969332559953 0.024669607005121184 0.9844297460216245 0.1740387475190879
0.996912743576574 -0.07393442799113177 0.02643259450474574 0.005045679350049141 0.9288535065919944 0.3704128837009483
0.9885071385482533 -0.1297160727835275 0.07763618679947641 0.8390299799101394 0.5426303648006652 0.03976153930984496
-0.02921484198638415 -0.9978064042704406 0.059404314696866745 -0.9986143369049393 0.052536898488375346 0.00304637901952797
-0.9419509363539336 0.33288926694111337 -0.043739792607601045 0.3949156640596978 0.9178658119647984 -0.039547054333910515
-0.9939115522529565 -0.09290829832935729 0.05922731126483673 0.06083093254058628 -0.9795885425537029 -0.19158779956916624
0.034063264691840255 0.998497216351295 0.042930210076924866 0.9492817053805165 0.00905943031502476 0.31429631011551123
-0.9982751782464604 -0.040723059784575674 0.042288306880028895 0.05128635482999907 0.9879003585286433 0.14636458392394494
0.994509160001626 -0.09726392848940056 -0.038616821304568796 0.07583951756077688 0.9857335467537678 0.15025891780651818
0.9930390198992385 -0.10182019301329095 0.05921277946774662 -0.04737478900523289 0.988648798685565 0.14258044124037073
0.9795517610222221 -0.20078773978227896 -0.012752687222196645 0.05623015205766336 0.9675166245661477 0.2464746461356618
0.9963512742929336 0.06026533291023821 -0.06043366498952089 -0.08857620998912386 -0.989067103130149 -0.11790046874248501
-0.06955752652271707 0.99724979132557 -0.02558523412339085 0.9994348888112143 -0.013859925398204341 0.03062361008882237
0.02369528346682274 0.9985957891493895 0.047381256151931284 0.8711155686395937 -0.07462131932666476 0.48537544723200143
0.13586781705929268 0.9900211300174113 0.03739115412220431 -0.9979124438217062 -0.01612538274784011 -0.0625358017221013
-0.009793335195704292 -0.9999248418152918 -0.007375724127714736 0.9442511297334053 0.0008356464490873374 0.3292250076956487
0.9981322310960696 -0.02440760425025075 -0.056002840123921156 -0.036986106164006466 0.9697752918321059 0.2411802465020274
0.9954365300917742 0.09542155051097587 0.0009177455690033588 0.015179901038467907 0.9581938217008157 0.28571694149778326
0.9942211970095282 0.10391128824498155 -0.026956550079889598 -0.037452809658821286 0.9341054123027576 0.3550272746640114
-0.4026104365576265 0.9145708809776191 -0.03827453517286807 -0.9571860255989852 0.06506486615400157 -0.2820664382559196
-0.9984217561175918 0.041664120423136775 0.0376576417268826 0.015180621218215777 0.9758973340674788 0.21770149769677022
-0.9980818101416581 0.05570059317249434 0.02702118029589601 0.005154568701318666 0.9418652534317816 0.3359512982552518
0.9962830493361533 0.015917134952313384 -0.0846565438720828 0.013465808099433912 0.9567095624960913 0.2907326693730288
0.13149581051405765 0.9896261366982668 -0.057870211516067346 0.9925249376274783 0.10631453971103742 -0.059928848091721776
-0.7597051552860324 0.6502270917713469 0.0072667845985581216 0.7151244162491149 0.69424041030639 -0.08140836555279622
0.9398152232841528 -0.34121648278863304 0.01785099315759122 0.002342854077254791 0.998357480334246 -0.05724379875085535
-0.9988088906643422 -0.04437732108677282 0.02028431174646343 0.09084343633469949 -0.9941042549634266 0.0591962865263855
0.9754066566755588 0.21817057176305882 -0.03136009772925543 0.2735485050868859 -0.9604743005912262 0.05157841863148818
-0.9732736285690248 0.22910414421463346 0.01580300717473097 -0.19330056456300795 -0.9791828997592178 0.06193335578468289
-0.08252469459015281 0.9939305846148099 0.07274385025597768 -0.8657335812853589 0.006320346899023677 -0.5004652030360381
-0.9955100107619728 0.0943970048521132 0.0070017103372759844 0.020455610059615662 -0.9988922081252244 0.04237835017792108
-0.9740102896394206 -0.22608918266033662 0.013698071415822275 -0.1917444606739256 0.9807688173165785 -0.03642236648414627
0.9934144297303437 -0.010245545052508815 0.11411748161483831 0.15165476759709462 -0.9315848953717871 -0.33037919755972517
0.9520224787172343 -0.27592862784637295 0.13235026389059779 -0.5755263918997304 -0.7700972557701246 -0.27517192604297636
-0.25635378971683526 0.9641332700991496 0.06877333775335555 -0.970292895000145 -0.1784959313086156 -0.1633122788356938
0.9906108017233219 0.13657633415384818 0.006094625351396078 -0.02675494070277181 0.9879191204847944 0.1526433245462812
-0.08764778486016803 0.9911199030814092 0.09999601754571875 0.9053907524142013 0.041797566287219944 0.4225169214307421
-0.033493170930221874 -0.9970013991584648 0.0697597131380449 -0.9938598272435138 -0.04931626346620757 -0.09904822032335826
-0.8232651138428567 0.5646780864196386 -0.05807935129427363 0.2647616633879573 0.8963549299815354 0.3555968238016741
-0.6184880383638344 0.7854889906691167 -0.021899587632379428 0.990452035695195 -0.137765782253313 0.005035298141814769
0.9983959839735829 -0.03809292795478053 -0.04188541542414624 0.014829124597749885 -0.9970938927314085 -0.07472527110282598
0.08374690651378183 -0.9952025531615788 0.05057997459515647 0.9916290012988341 0.12157577990141077 -0.0434885447496307
-0.9954529988704602 0.09508442710209886 -0.005681440176003771 0.23786774648646697 -0.9701884196908284 0.04640436918289902
0.13314663102667187 -0.9910127741767976 -0.012870744526052446 0.9420496621382011 0.3325855868538806 -0.04392335918803361
-0.29438769293440276 -0.955149754635953 0.03201300466433122 0.9791434754081851 -0.19763285073832743 -0.04710956245416457
0.9998414021322493 -0.017793720176876145 -0.0007443819482422869 0.2231858678501138 0.9731518038116649 -0.05624620102810896
0.9996010462873753 0.013009424113909191 -0.025069965006136802 0.04936648393453032 -0.9261744121834811 -0.3738501149933287
0.2955372707933319 -0.9553298089914949 0.0016363447994755 0.6875257640858826 -0.7261064681770378 0.008815928175279646
0.3252728886676314 -0.9452890565003165 -0.02502294064565433 -0.14745530269907062 -0.9884781677521023 -0.0341737557691872
0.9477969495781877 0.3112424025303544 -0.06934774140096486 0.07041469081240016 -0.9961459667395383 0.05229707703442727
-0.9970868808590687 0.06373084772897915 -0.04190621751576665 0.004113394640489277 -0.9891514336368453 -0.14684182414661476
-0.9936369066094876 -0.07158769119715669 0.08695343749725418 0.029289691158638696 -0.9717548489621517 -0.23416794723099324
-0.9969634258008818 -0.029061666870091266 0.07224504920132323 -0.11131098009625395 -0.9872600013146922 -0.11369940859180162
-0.9975022655999976 0.030481418861169663 0.06371901778183442 -0.0611315863421727 -0.9833213274644808 -0.1712953475865035
0.9966322515271945 0.06478775501735076 -0.05026631094129269 -0.057194159209706254 -0.9834769728154508 -0.17176109016320368
-0.9988341873151609 -0.01803341315775203 0.04477792157239817 0.16579859302521457 0.9855198813611736 -0.03551605260607699
0.9743145208516745 -0.2231310182090149 -0.030393472499538558 0.21229847852591427 0.9765095699020677 -0.03685669417162346
0.9976130795401167 0.06447695673068846 0.024715695038447304 0.2267069697895454 0.9721865076358751 0.05879918553519925
0.596013126112011 0.8015786572130331 0.04732874182501512 -0.18163768843421751 0.9831287852156029 0.021576418163517245
-0.48679994559754425 -0.8706311252462255 -0.07090315027359019 -0.9032971888399368 0.4287161661112034 -0.016019911010325516
-0.997044009492386 0.06585197764950793 0.03958232149578272 0.08418762702809537 0.996134690417421 0.02506236226629789
-0.9966053123096917 -0.044233307767210794 -0.06943533653747824 -0.03641466736376096 0.9059956784340312 0.42171768122720005
-0.24196493287120907 -0.9692413759583284 -0.044990292186621386 -0.9901680352738108 0.12523793890473753 0.06231148032982664
0.37639906732838024 0.9234904401554045 -0.07408879170227287 0.737313684334113 0.6706621753835345 -0.08112199087473859
-0.7513257295649625 -0.6563169010028964 0.06897661597694763 0.12539307571684874 0.990955271917117 -0.04779357301919735
0.2836571331376998 0.9562210367361322 -0.07197193705450428 0.8965552379666754 0.4359062027229929 -0.07857790848666768
-0.12309809126811094 0.9912623905835724 -0.047389164802610996 0.9528565764773739 0.29506738522045817 -0.07070772831155238
-0.7094146141288966 0.7047747100327029 0.004849057503087104 0.45292833240013813 0.8893043095216585 -0.06319628767131849
0.7516634120139043 -0.6588242343419315 -0.030866539867359263 0.6463327194274283 0.7627861603567001 -0.020280270358840672
0.24708162280037654 -0.952501720494828 -0.17802006664622141 0.9082127565176713 0.025525628680012197 0.4177296149174287
0.1689738595507084 0.9855976063743396 -0.00672258117911003 0.9894273355142074 0.1339872349494943 -0.05550647356700707
0.11351593154990246 0.9933637221177773 0.018510776987282714 0.9776785198617098 -0.20168301926681173 -0.05889542885860251
0.03494350602504017 0.9993890987707086 -0.0006169643009499585 0.9963294004131881 -0.06203958250919932 -0.058981489251979984
0.03679668927763848 -0.9993203616347867 -0.0021951037160190486 0.9862076426794014 -0.15564561161884524 -0.056293242085828525
-0.6184911028945025 -0.7855804291858911 0.018224843495988085 -0.987941179752387 0.1538435676512874 0.017446548133813317
-0.9908213888996277 -0.1330149901049553 0.024082933924078294 -0.22601842207039194 0.9729577032311166 -0.047633817903254765
-0.9982252640503593 -0.04819225247428682 0.03498326761531643 0.08710209272828487 0.9946767356346391 -0.05505830572739485
-0.9986905873247666 0.05012989952461996 0.010203134938050444 0.1772151537287164 0.9826952582713443 -0.0538963696358402
0.04430643606739581 -0.9983068453303455 0.03768795947752001 0.9940167339567534 -0.10878299782732717 0.009848451535588108
0.9956281098601663 -0.08004144299591406 -0.0481459682570057 -0.12113858789915255 -0.9906705403454942 0.06242854325839885
0.988647081151784 -0.14518377984283862 -0.03871200073108817 0.32345751268564965 -0.9454209238234463 0.039427329151667585
-0.9956299993098541 -0.09265516938420264 0.011658647462068936 -0.06300374537175107 0.9948158510116918 0.07982449902764922
-0.9976729070433143 -0.059085024468113846 0.03402543806249223 -0.07536556434194147 -0.9957886824546934 0.05220087745015749
-0.9925225593978336 0.11603079388308588 0.0378922677763521 -0.11038193495151263 -0.9921656394973624 0.058507881837835334
0.02613177170552372 0.9986752703556004 -0.044326458100084905 0.9998947017549029 0.00021286830650205974 0.014509999640179872
-0.10510743749458122 0.9936841867630789 -0.039295846603952155 0.9961101243415662 0.07973196958360339 0.03751577282355703
0.9992232395588363 -0.023982679764286932 -0.03126897179103039 -0.020648573910287436 0.9798765412182624 0.19853362527694496
0.9989167115335084 -0.04396642642992663 0.015243253132567051 -0.039616599169620334 0.9620065957204385 0.27013669661970535
0.9990288088775973 -0.01605715371683187 -0.041031778503051466 -0.01754840564531356 0.9852696541669007 0.1701051499430371
0.9997757150068368 0.020275496549318 -0.006117509480731343 -0.042023067210477626 0.9838984138897741 0.17371808474482625
-0.9991321635184115 -0.04118181854328481 0.00624320786823152 0.07248982931727273 -0.981303263933224 -0.17829506117544036
0.06710448356868677 -0.9955290352875228 -0.06647501925139927 -0.7714684095871125 -0.6275971965941312 -0.1046816690558511
-0.9575686918699844 -0.27439789173565027 -0.0881362431774659 -0.6077328797875529 0.6690990968372328 0.42774659021052064
0.23037064782049543 0.9718614967798049 -0.049138535790987786 0.9519339697458683 -0.30495896985603915 -0.028666076610091903
0.20796126565617762 -0.9727609542093174 -0.10241209866250675 0.9652183201310781 -0.24461525342463217 0.09228744375776483
-0.995597199877304 0.07079100390303153 0.06143980275743578 -0.11351042998819758 -0.9927107167340139 0.04050697674888669
0.8613665929485722 0.5070832184765576 0.030235775029334527 0.33190187538292687 -0.9404926559942286 0.07290205167358375
0.0011308198984539969 0.9990798286031242 -0.042874436727605963 0.9998802210516751 -0.004663186174472181 0.014757989170473296
0.05708684147298093 0.9980018608708195 0.027080956944320465 -0.966220660599545 0.25222167231789056 0.052932627402628656
-0.9965384108735811 -0.06496445873337899 0.05187306386783671 -0.31917909063072375 0.9476943930541444 -0.00021325543660543
-0.019141204874786894 -0.9992815412594491 0.03271109252350485 0.9657469910371542 -0.07945147218494424 0.24702269707524394
-0.9529931963369671 -0.30297366839460044 0.003305146739507154 -0.2989048279109403 -0.9542780514479032 -0.0030503075786258364
0.9824786274651127 -0.18128570242305067 -0.043257839419573806 0.5156056346315954 0.8553635496211182 0.05004025894927577
-0.0028215431756587815 -0.9969674940924491 -0.07776795366428547 0.9318603683098917 -0.021616183043878245 0.36217260333156986
-0.9370778834987289 -0.3491196694232714 0.0007047548001864375 0.1041722981467978 0.9941403527100235 0.02886332296193162
0.041979353095424964 -0.9915742605051691 0.12254884665845285 0.783788474134393 -0.384456643824313 0.4877178660182801
0.9027409809980345 -0.43002917896824583 -0.011559691284933386 0.027314374673066605 0.9991540141889681 -0.030743793947569695
-0.007558182790744607 0.998634345743331 -0.05169446174099339 -0.9963578756811802 -0.05575388961163212 -0.06451734155449827
0.018099754113688336 0.9998306111735604 -0.003338841315281176 0.9960370501600866 0.08569373324885901 0.0238071163786465
-0.021446129103807603 -0.9997542033886821 0.005621063344624384 -0.9973207732996188 -0.0546931936714682 -0.0485791077631707
-0.006402317479070026 -0.9995894990448486 0.027925682268583527 -0.9993410552754568 0.0337305720682006 0.0134053626914137
-0.9985960429032412 0.006041432948453009 0.05262550888986774 -0.06807462901419761 0.9969980495086408 0.0368881303476498
0.029690541033598812 -0.9990857730367694 0.03075857422985395 -0.8708231986614073 -0.48898499528150813 -0.050602678413878964
0.9542509771099699 0.2927547156985731 0.06082556305464987 0.30469050198288544 -0.9511726378726795 0.04933873694923544
-0.9949786727070908 -0.06618942696904821 -0.07507596563178491 -0.2902188032152152 0.9544255271154782 -0.06960574294316381
0.39345891398989963 -0.9189925976629528 0.02535130060937811 -0.9951520964116047 0.09458683346576323 0.026937630603079594
0.06410740606959879 -0.9966776403475256 0.05023864765612141 0.991187692173871 0.1288933718073605 -0.030552538146039292
0.02496688194768402 0.9974486746756429 -0.06687896675049436 -0.9738641247611671 -0.051666263233973615 -0.2211769964227824
-0.9981872531757168 0.01954117563431212 0.05692407269641091 -0.0090983808916754 -0.9971228040600224 -0.0752551200160354
0.9927120213065043 0.09163944004953842 0.07826273558317329 -0.33196685401817855 -0.9393511670133898 -0.08612428730535902
-0.875837167010109 0.4819203505193464 -0.025729994928420048 0.0003358230016456843 0.9974600335228083 0.07122758417628562
0.015906814325152355 0.9981955879156982 -0.05790113577175346 -0.9956393213519332 -0.0894837001649689 0.026363026811194894
0.007992714796401889 0.9995889950343425 0.027531028248442543 -0.986996374340129 -0.028879462073256142 -0.15812695440625943
-0.010907463549288088 -0.996375911603868 0.0843568018270122 -0.8952125202069919 0.00778295392547021 -0.4455715086188074
0.08967362216877711 0.9959705290047591 0.001160534838700967 0.863084768021256 -0.11877940824410464 0.4908932016099581
0.033843499022415145 -0.9990818274084008 -0.026270129733408823 -0.9634158283366 -0.0058228511752138916 -0.26794782349310897
-0.9973415759339636 -0.016908533100259214 0.07087935116770742 -0.4347221962046724 0.7619246251120371 0.48009111403448024
0.9987828351913721 -0.022317705544058375 -0.043985999435421884 0.1754487382283288 0.9843071556878737 -0.0188987702175402
0.9901942764304675 -0.13958680763416192 -0.005551401520895447 0.13701018791994424 0.9904398251702825 -0.016036244036609998
0.9811161633601228 -0.19096991487533393 0.030684941030097463 -0.036882682049788645 -0.9993180031928398 0.0017878085718661845
-0.1493593327775798 -0.9869757057748841 0.0597557187422707 -0.9982494757828754 0.007329229632779547 0.05868787346807136
-0.39256211277706987 0.9194308010907238 -0.02328067047300985 0.973876174857852 0.21819561306987817 -0.06289571115186131
0.999786770854467 -0.010926917760045356 -0.01752185186168054 0.06077389831095438 -0.8488929628748069 -0.5250593022371107
0.9991961333653699 0.026056114322192896 0.030465816485409757 -0.06884835646572911 -0.8446671988130631 -0.5308457657938521
0.9976065208552305 -0.060031805694583655 0.034313435446923245 -0.19112705883428163 -0.8180666685874546 -0.5424365152970262
0.999325777731544 -0.0009314635975897776 -0.036703165215154515 0.20610904297940613 -0.9763269977484618 -0.06560987631133158
-0.04033383969089103 -0.9971228639300947 0.06418080401206681 0.9579573104523077 -0.027726113810648146 0.2855679498191977
-0.10404893512266535 -0.99318810550185 0.05245194171320463 0.9750263658463211 0.002342017392512917 0.22207679045557457
0.13079845244823363 0.9892051595443956 0.0660675197649663 -0.8589362560674754 0.5120353605166987 -0.006949646992673142
0.06052250438133619 0.9972820203219798 0.04201902433328927 0.9989090972236839 -0.0269678851892818 0.03812281012966171
0.07547080703966505 -0.9970718742681818 -0.012322127580768474 0.992518262487102 0.11241842097870841 0.04764029024091079
0.10487768509791251 0.9941065718188213 0.02743711054636988 0.9953489522584362 -0.03332458326978704 0.09038769489221539
0.929230888155114 -0.3685948138615721 0.02584220758393625 -0.18144743669715427 0.9828402666693449 -0.03319394416702023
-0.9995419112388583 0.022903349250064816 0.019783939701181752 0.01541648313304285 -0.9953344904890273 -0.09524486385499739
0.9975492779713032 -0.060598507161144295 -0.03497511899582957 -0.003827926646914498 0.9969105724820652 0.07845162491030237
0.9849029777372769 -0.17228298831765143 -0.016872948188894937 -0.15144227150604067 0.9881637426345835 -0.024447006841395617
-0.9948254408148968 -0.095206688559262 -0.03546870114658803 0.28288116122269824 -0.9574317161870424 0.05746962210100696
-0.9086307519950185 0.4152657811030172 -0.04409634422339459 0.12313982017559935 -0.9911151869965289 0.05027196825226269
0.9932534677951723 -0.11156788655358171 0.03162523364074943 -0.06276048518157425 0.9899766574338017 0.1265201139580995
-0.9973493664807727 -0.05719447016392156 0.044978147617144235 -0.02269426155878403 -0.999239701422666 -0.03170157082926311
0.9997145654110856 -0.014021430620627726 -0.01934391863804704 -0.019204164717370843 -0.8594934783316073 -0.5107858267052277
0.9742380004783595 -0.22302044758526698 0.033499229585102236 -0.014595410045203682 -0.9980252925767604 -0.06109410268335355
0.8773301104597796 0.47339845305293204 -0.07864974207028223 0.17474273104761454 -0.9834440316836582 0.047987649367444554
0.13638418298488242 0.988470503491753 -0.06576791283221796 0.9912349603881704 0.1178925140329112 -0.0596205370594922
-0.017600740289900905 -0.9998322708381963 0.005064003533078602 -0.995878558251675 0.07857314517790501 0.04530075133391215
-0.6222533074253218 -0.7823983993928578 0.025564937428867514 -0.9870355769604111 0.15763839953308545 0.03018119956323317
0.0869437272671698 0.9866417595126428 0.13776366238848473 0.8419928318157552 0.21722342724010613 0.4938239097380234
0.5327755939648774 -0.8216268272700682 0.2026808406966318 0.7325058695340307 0.43606160633404367 0.5227670863583199
-0.17412852277222415 0.9846996642152257 0.006769700996678004 0.9940239263590968 -0.10789973513861485 0.016555391347284367
0.06765343789713767 -0.9965310410135354 0.048465416919462156 0.9694870491385416 0.23588111850720464 -0.06674548287662077
-0.9997536345185979 0.019549673594871822 0.01051097184793216 0.04537610159721316 0.9984872115158007 -0.031053145464509
-0.9926884124974464 -0.05734282337718758 -0.10621448253619745 0.12604877760976493 0.9557275238868616 0.2658883332306489
-0.9990175900286381 0.01209187196375449 0.042633806372220584 0.014084068814307087 -0.9932221703327133 -0.11537486452953409
0.9993663444497813 -0.03365435515068494 0.011588527105391698 0.104906466485733 -0.990707306686593 -0.08656596194391107
0.9929025883566819 0.11893044167090908 -8.863628860125208e-06 0.05543531119626743 -0.9002489363138032 -0.4318318873571505
-0.9781664986376318 -0.19578228499387967 0.06971081570008279 -0.12748560067013112 0.9910564347038875 -0.03942797044986116
-0.9969735769547972 -0.03477865680656499 -0.06952792161921911 -0.0605394092047401 0.9914095245466965 0.11594021981708498
-0.9999240812205594 0.009086789653537675 -0.008322382412049181 -0.015303262910507012 -0.9298733062680631 -0.36756148388316345
-0.9932374789201841 -0.10696525776565584 0.04514137901530832 0.02288000431029481 0.936309329298607 0.35043022882045083
0.9984546629454679 0.055177486913608936 -0.006612940371008244 -0.04767715610160122 0.8938621944216911 0.4457995807195231
-0.0879883088657044 0.9942990729012623 0.0602279929156186 0.8865265018965659 -0.4606076627060664 -0.043718903136890294
-0.064722732362613 -0.9964081281848559 0.054605952080972305 0.9967547089258354 -0.08030341887446052 0.005604565214724937
-0.03160749473709339 0.998276158433726 -0.04945379438675404 -0.9996801464474366 -0.019067556007126903 0.016614244091939713
0.14387142156698104 -0.9885462354144072 -0.045578004610770176 -0.9994094095194181 -0.011418359819654519 -0.03241069612144505
0.9954020553695849 0.07718554336673017 -0.05671983833887878 -0.10372765034425709 0.9939721443768209 -0.03549578505969184
0.9972358015388677 0.023950615289228573 -0.07033579569749185 -0.00077263591503637 -0.9548289392695943 -0.29715500966169855
0.998376425857575 0.03357813664502916 -0.046011096827848916 -0.2037886163385276 0.9789765305355516 -0.008669054816001822
0.03788370168433572 -0.998018221243121 0.050243956983989944 0.9986014606226008 -0.05280139532984734 0.002671234476692401
-0.06484488728750996 -0.9966607330584406 0.04962382262665376 -0.8949900272179302 -0.04706298397312058 -0.44359658105083993
-0.2003023494099614 -0.9796398507952099 -0.013591598684063512 -0.9581131340523414 -0.2826357361424769 0.04621972535184762
0.9974023996161294 -0.034955323768725184 -0.06298077945064073 -0.01135790569317617 -0.9705427212525951 -0.24066122288784372
-0.9955422745309749 0.039938117285329096 -0.08544311797562229 -0.0034177419785286363 -0.9827209148096802 -0.1850619426986371
-0.3577070547683492 -0.9332571611810532 -0.03281362633472568 0.8886690405175596 -0.4564881394292807 -0.04342712269991785
-0.6123106507696947 0.790296475064933 0.022519956792473986 -0.5491176220477313 -0.8313124770517429 -0.08596163478401372
0.04676547061995725 -0.998881416977477 0.006993252087654081 0.9848445306971857 0.1701176521079765 -0.03378216685041972
0.06326945141453445 0.9975626907384355 -0.029422008163900698 -0.9912527800726942 -0.05325270097310426 -0.12075626624413217
0.2703044961143884 -0.9312061337866475 -0.24452119699214409 0.8353171776014295 0.2222756995350481 0.5028307132626118
-0.0058700831713324 0.9997248320843847 -0.022711279959764314 0.9952114577338295 0.0847651944519897 0.04867254056264726
-0.008307300562500867 0.9960608425615755 -0.08828242561738305 -0.8041681499556308 0.3029369374647398 -0.5114125521694028
0.03937714533078501 0.9988174353511202 -0.028516157949646594 0.8664626299216558 -0.061033938211179015 0.49549709316572366
-0.016403925585968628 -0.998243858041992 0.056921973848499445 -0.9903460524360267 -0.062399792338082925 -0.12377787500414877
0.997811246122991 0.033737595570595004 -0.056872592305951805 -0.04289228543902829 0.9910415860709296 0.12647856153448692
-0.9973691591866757 -0.019767591050589263 0.06974240207592573 0.03498269519907356 0.9971886568306114 0.06626457367983025
-0.029442588673852695 -0.9991704634026313 -0.02813394810461969 0.9794170398167711 -0.16448311426598933 0.11699387692488436
-0.06302488897528295 -0.9977674428432102 -0.022090572011030533 0.972920095376616 0.04249124844939557 0.2272025127888514
-0.09350294285457052 0.9935860210670835 0.06359259719193947 -0.9686558942085345 -0.24767740866978924 0.01901735653771262
0.6623233128358635 -0.7491272798667836 0.0116682403780643 -0.4935862430385679 -0.8682837152174829 0.04955815342803376
-0.9883380331268911 0.15208216913567418 0.007677636736429264 0.06378701400119179 -0.9972793309846502 0.036947974716082
-0.01864603809022881 0.9991095409147165 -0.037847728025895325 0.8980814288267072 -0.042610675695409495 0.4377602968673162
0.08408171585865783 0.9964535445502802 -0.003255550866847486 -0.6279616041476025 0.6615920468781032 -0.4098294611469646
-0.0072199211548530234 0.9983672188339872 0.05666364880774082 0.9740585980291979 0.0478917701170461 0.22117012899677396
0.11877692917138936 -0.9919348406348273 -0.044241530617448226 0.9771657344473481 0.17962810627573217 0.11349392432094799
-0.028477223094064655 -0.9994110244496057 0.019148158486928312 -0.9905539767272317 -0.08342736565572031 -0.10882414185103409
-0.13225277580118536 0.9907625694569493 0.029978896843364522 0.9967354880288507 0.0777880057380497 -0.021619275362183457
-0.027689837833735926 -0.9981845839771364 0.05348653280156559 0.9368201381838004 0.015811433287912315 0.3494538986342365
0.9073310471120217 0.39091288702798543 0.1547174382610039 0.5869179515980129 -0.6899355604355404 -0.42369356914931966
0.9984033430834803 0.04236117920333529 -0.0373670311402054 -0.02560259916317846 0.9147605620565459 0.40318435116219703
0.9948172428616239 -0.08611693402965406 0.05406040120577289 -0.25361958805891566 -0.9668012951412721 0.03118269176938945
0.11963515301510097 -0.9917071888119687 0.046949779783461446 0.9899910090909988 0.13738194980689755 -0.03231101648417865
0.04877846661394659 0.9968482077964379 -0.06256446122058273 0.990325362405417 -0.13713751683272643 -0.021189102235184117
0.8906482175533452 0.44795187160785865 -0.07800559782519133 0.5791007525980216 -0.8151526492212641 0.01297986163099272
0.9998880586396781 -0.011791361764002084 0.009210536223581013 0.0002591519604802662 -0.8658752614213097 -0.5002598969524141
-0.9919844143349091 -0.11175117724450757 0.05897962445704472 -0.06931746930599929 -0.9917494232865989 -0.10783399213471795
0.015639433249610483 0.9998407160127851 -0.008599461068701004 -0.9464220305177138 0.015614661944274851 -0.3225546813845579
-0.9965294672549759 -0.0726351840756368 0.04065895875218798 0.03656906399983813 -0.8519007405501031 -0.522424953278805
0.022847030677841326 -0.9994048737385274 0.025843984539615356 -0.9864908692896275 0.08783013057347837 -0.13828099280682382
-0.5577416039329066 0.829270302337525 0.035143547108659814 0.7377261009032934 0.5761986768782037 0.35178869340817537
0.08648473273833618 0.9962508701960908 0.002143510370958387 -0.9928853491552894 0.10851361853229985 0.04902527945668445
-0.22285857482346302 -0.9732861779995455 0.05520934108185023 0.9653481236669252 -0.2570124707390819 -0.04525030405797991
0.0697359133376521 0.9964089381328529 -0.04802218653834831 0.9983504262339661 -0.006695944723907654 -0.0570227214600676
-0.02946273777113674 -0.9988234330866333 0.03851878243222649 -0.9904998290104919 -0.12190095117122675 0.0636415495862253
0.3741318237608952 0.9269035700322298 0.029582939523545612 0.9911335310570938 0.1208105854841131 -0.05530936674092877
-0.7305419749042417 -0.6781695177008757 0.07996579371438675 -0.5709257282326505 -0.8171962344194241 0.07895648987088615
-0.9868645139460978 0.15073409853102832 -0.05811766215162594 -0.16782428645680064 -0.9825848701240968 -0.07976203281309728
-0.8072958239985513 -0.5901013289455632 -0.0073398999434649325 -0.7648820537045765 0.6437013256829266 -0.024577372412690625
0.22791971053332943 -0.9709541486046707 -0.07280554139474728 0.9515391183820423 0.1928130888775298 0.23957549738283265
-0.9998224282744338 -0.013386944433541942 -0.013262791491541612 -0.06454592848517764 -0.9978832003671817 -0.00793357050373101
-0.9983723365539275 -0.02046230471625622 -0.05323506071707367 -0.6100373907348213 -0.7864007480547726 -0.09709915223288484
-0.5595843280384363 0.8267633880898172 -0.05768604621585769 -0.988175785868859 0.12927448824743423 -0.08244223984600843
-0.6435965370463048 0.7628486617554591 -0.06201142443057984 -0.9875823214216423 0.13406176827753916 -0.08190604801685702
0.9871839189122437 0.159572062022658 -0.0021603848967092602 0.021275260453216184 -0.9997199209400286 0.010365469999506029
0.11739429915205041 0.9924951148238309 0.03423485909755871 0.8637085128729615 -0.0181638590580447 0.5036642522701972
-0.92345274819721 -0.38013848299797925 -0.052247062989372456 -0.5688106694696932 0.8197859370697249 -0.06637348627390698
0.08675872289803395 0.9952426157191737 -0.044328995675058436 -0.998019555144434 -0.03699228295558342 0.050877682249097625
-0.9898435200336752 0.1326954263762154 0.051007153088344775 0.05088434124625708 -0.9979656258378107 0.038410850837769635
-0.9909629045325006 -0.12687723859099004 0.04352801589821171 0.0516962280276123 -0.9986271131819566 0.008449190824489212
-0.09100089266641993 0.9952998044110745 0.0331230565194622 0.9870932559875519 -0.03310980675455246 0.15668645340478363
-0.9983676710716326 0.011039078179507607 0.056036881711522275 0.0034558570186282627 0.9944508084305014 0.10514583522036966
0.04299247611074083 -0.9981450081876878 0.04310672369675058 0.9966281135602593 -0.03292703634311622 0.07515459759042036
-0.030157585014220438 -0.9974932851191824 0.06401301592841388 0.995899354523042 0.05957468149785437 0.06808327977570873
-0.9988782565181614 0.04640823411286012 0.009407680998198881 -0.03175875935475443 0.9898562164543813 0.13847762256358895
0.9966310860947106 0.08141090405685382 0.009936947736769827 -0.07933795040096903 0.9222366964080093 0.3783978929970604
0.02639892899298292 -0.9430766111330234 -0.3315261710361271 0.9117104505430554 -0.0004341568001817905 0.4108331362955666
0.13026749038283753 -0.9899260008619993 0.055469755423352265 0.6657856438870801 -0.6465698205769275 0.37239353312455115
-0.8686807123494159 0.4875676882315015 0.08758749559555072 0.04382552480415967 0.9969063813031017 0.06524561512312284
-0.9929026920331145 0.099737699463926 0.0647814437862999 -0.47825847559378826 -0.8767529555771783 -0.05072558929562275
-0.0033988039560881463 0.9948710023393913 0.10109469242192103 -0.9657013265721053 -0.08004127796785225 -0.24701081287698545
-0.1038196839320046 -0.9945713203526763 0.007025806728969609 -0.9918206059216493 0.09695283736073633 -0.08301826905515955
0.1363951460039676 0.9906511667407494 -0.002574875093769705 -0.984591774098582 -0.1714630695146269 -0.03434318229327403
-0.6383179457118336 0.7697298314919028 -0.008135520491734577 -0.9949240839329061 0.09873095646388208 0.019449047431554806
-0.047410552231152786 -0.9974137169988726 0.05401959533011977 0.9894774508185293 -0.06637044217678514 0.12856647590613415
0.08724732822452781 0.9949112355597095 -0.05039381980693523 -0.9903757219868707 0.05145283686382515 -0.1284855434578108
-0.03573215981784658 -0.9980985411067071 0.05022464529904329 0.9945210412956765 -0.05568909449262237 0.08846820431519412
0.025827707879996085 0.9994154710096987 -0.022397451018532147 -0.9986285706484164 -0.03365012008010491 -0.04010794563793397
0.039582785321058106 -0.999081155439257 0.016433135805022897 0.9901570209267821 0.13983247009482322 0.0059961835012099845
0.015888753443873607 0.9996682341006328 -0.020272376380730157 0.9902473961270448 -0.13534246956059368 -0.03305314503715798
-0.9999470942423989 0.008828801891605358 0.00527834949031238 -0.009959092566386775 -0.9991204442394379 -0.04073271876565997
-0.022792934912063918 0.9985889748826183 -0.04796395897938035 -0.9641034227650577 -0.14436008168388587 -0.22285591091313275
0.9892052963417513 -0.1321165010489081 0.06338857815113028 0.6548946694875871 0.7461587273112843 0.11983374121652268
0.05968700198149328 0.9962185854242303 -0.06313471192463763 -0.9976853862480045 -0.05087019477352268 0.04512309110504363
-0.9984450066145589 -0.003527694412330494 0.055633839869152185 0.04158996311132831 -0.9985171032141662 -0.0351264794306006
-0.7609586034571635 0.6397232259375549 0.10814896217981602 0.19221864223798474 0.7950460668378329 0.5752857943508407
-0.9936464178158118 0.11077791355591864 -0.019875870547041718 -0.055725887612934885 -0.9984366425611966 -0.004346980662010189
-0.17502032782800092 0.9836083892817811 -0.043386880292081244 0.9937089901855155 0.10287703896377753 -0.0442578544275285
0.029505448910727063 -0.9992275726888868 -0.025955470769221126 0.9782177173110683 0.014477156222312864 0.20707609588370565
0.02223719715082517 0.9995150707754726 0.021797485074596494 -0.6633771466787075 0.6469347679327248 -0.3760401139562747
-0.9875096081077229 -0.13255317513333675 -0.08517293969919422 -0.13106671869996553 0.9911790394168846 -0.01963738958839122
-0.9194778669248849 -0.3718373225531581 -0.12766149690396966 0.7322940590730708 -0.6805996396786828 0.023011769065700568
-0.07137909878432588 -0.9971882116887433 -0.02281873628717071 0.9011106584275571 -0.04902938493575068 0.43080819477010507
0.00520582049944031 0.9999355660840078 0.010087770476301786 0.9970690903935233 -0.06490323530814371 -0.040506777560895074
