0.026266981349145683 0.9996419715379108 0.005096511611135022 -0.9987876799034099 -0.008011052758217264 0.04856947093461878
-0.20454973698874748 -0.9773480386917973 0.054315894203550846 0.984110170142146 -0.17034327269750243 -0.050103317949025006
0.12683862887428513 0.9906091204322423 -0.05104441930074969 0.9831390904538129 -0.17626656756073364 -0.04865825707942188
-0.04415812926559534 -0.9982482898700868 0.03937526369702421 -0.9950204215525491 -0.07781037881673662 0.06228888859004574
0.282783658552471 0.958464981719505 0.03712521074833553 0.9970120747159666 0.04890184414475887 -0.05979575662039269
0.0 0.0 0.0 0.0 0.0 0.0
-0.9858023858714785 0.1577360682438068 -0.05755856830295456 -0.14973656228271373 -0.9855877190781858 -0.07871346719598965
-0.8986156713520735 -0.43858937664835096 -0.011368108535422248 -0.6284482897102737 0.7774860746113588 -0.023835917134702157
0.31867251836167804 -0.9465875909233021 -0.049191043402687186 0.9482312120304673 0.20720781393433407 0.24067091717900924
-0.9997179420194684 -0.01967195917962753 -0.013306029700631366 -0.09415019740573864 -0.9955233492451268 -0.008306710313107368
-0.9979773360468649 -0.03310651451645012 -0.054269654811641754 -0.5862408889579633 -0.8042651044757171 -0.09736150079184717
-0.5521457696421044 0.8317863817281644 -0.057152989754661265 -0.9924540040101091 -0.09331770612886432 -0.07954153410105397
-0.7160595745003091 0.6948138039486117 -0.06702584284361068 -0.991218864284323 -0.10593883346453518 -0.07913360001333344
0.9876814330351149 0.15646359594371825 -0.002128375451549899 -0.03105573617646225 -0.9994636555714681 0.01038953522810161
0.10377170834597266 0.9942549371278212 0.026240284752850937 0.8629459800025245 -0.037660879219137675 0.503890755793281
-0.9383302120825961 -0.34141086657741193 -0.05454386561191643 -0.5562043088732362 0.8284387313379168 -0.06577260227532909
0.07664408503636665 0.996093244070552 -0.04386266460147849 -0.9961353505922402 -0.07068112742788601 0.052139634885541325
-0.9880579120169394 0.14561730126729364 0.05037026972685771 0.031137002965542435 -0.9987315566309402 0.039569746472061545
-0.993520297988102 -0.10504052109541791 0.04340399075702559 0.007338086100952331 -0.9999195030807805 0.010350838181518714
-0.08803256268667047 0.9955503840497225 0.03361102088999495 0.9872663282291378 -0.024967016883796787 0.15710456776580484
-0.9978143351767987 0.03136854202065204 0.05815984084556459 -0.029914458591034792 0.9938182847069068 0.1069127782326629
0.025314988768333505 -0.9988042619369076 0.041823410673073255 0.9972485557623653 -0.0037708569339069643 0.07403444244310019
-0.0033791017354504174 -0.9978157930263115 0.06597139424579748 0.9973232568921615 0.017583401704060826 0.07097284865725215
-0.9977881491223598 0.06537178791436228 0.012055654932645356 -0.032034280445227874 0.9898473979996126 0.1384771950530225
0.9987854396072907 0.049161813619792584 -0.0032805045471363033 -0.09869815986986982 0.9204755529751989 0.3781314977799437
-0.2666000703592555 -0.8607503316631598 -0.4336280307201095 0.9207470937528114 -0.12329377493718853 0.3701667656712168
0.044895024183525194 -0.998974487357231 0.005866038946169725 0.6912271745203287 -0.6097268424568562 0.38786359817883803
-0.8231655332883696 0.5606672781830632 0.08972573756102428 0.36487727104580825 0.9301694543623281 0.04061235336018426
-0.9943719878679492 0.08477714677998623 0.06353884738793905 -0.4765375692067056 -0.8776791362245119 -0.05090460657699841
0.06731954972125419 0.9907104183675846 0.11815644359599346 -0.9687464397799996 -0.044171276309777976 -0.2440885776982216
-0.16183938936711528 -0.9868147983479578 0.002136775785719664 -0.9926770358660189 0.08781969741954872 -0.08294578475964702
0.07374075981245287 0.9972654395485095 -0.004893201855642548 -0.9851645584782568 -0.1681314271661458 -0.03438918314552266
-0.6086539669829786 0.793379014934402 -0.009491424424253325 -0.7986187510924195 0.601837153717503 0.0003616749905594185
-0.05742051164219299 -0.996956487087802 0.052731847078383964 0.9906039248437627 -0.04904301010808196 0.12766615543546103
0.10453458625611355 0.99335688203016 -0.04811055185281052 -0.9915211044506724 0.026960658620970506 -0.12711814314110448
-0.021128837153288373 -0.9984495225121428 0.05149876926513576 0.9921948590563269 -0.08640509642866868 0.0899084032410114
0.024223367952868037 0.9994541481908276 -0.02246406261492792 -0.9991520134958767 -0.005627744988815685 -0.040787037321633385
0.041351000947170924 -0.9990093094814351 0.016446710616208664 0.9965268296217035 0.08298046868831385 0.0069656055288903505
0.004150406415731943 0.999794326160118 -0.019851435832697283 0.9963448868179323 -0.07818920460760267 -0.034399342938382406
-0.99993395106683 0.010180747646013882 0.005333468031842808 -0.015132897752042669 -0.9990566177392323 -0.04070466750965883
-0.029684313240605668 0.998328449954509 -0.049589792889878435 -0.9640850778406509 -0.14449835209535214 -0.222845661673531
0.993685056967774 -0.0894687599992406 0.06771520171386913 0.6406555988932418 0.7584109972012609 0.11988812673042643
0.06440541720383436 0.9959132323282478 -0.06331489483764137 -0.9987347770850769 -0.02506299921895129 0.04359691630118563
-0.9984319452458764 0.003557346206141299 0.05586587509835336 0.07480213344178634 -0.9965148831011811 -0.03691515393976679
0.8745813277495152 -0.4836732643885631 0.034171252063775436 0.5498913472592106 0.5939777927822497 0.5872051497483457
-0.9937257178020952 0.11006358156871177 -0.019879783474126517 -0.03366027489321296 -0.9994257196524846 -0.0039008705729074162
-0.1611276369368028 0.9859499605942477 -0.04405178565464959 0.9953592165996675 0.08585950713760783 -0.04345313526298357
0.07740672599860565 -0.9968749892659579 -0.015762440996666915 0.9781434844913008 0.017802656788732746 0.20716753886282202
0.040901667324054924 0.9986333793521199 0.032533478969786984 -0.7027000322547851 0.5889429600966036 -0.39919776354806213
-0.9874871996465926 -0.1327221613611201 -0.08516958622515078 -0.10541423126829301 0.9942757736117741 -0.01742199342276411
0.3240989893293447 0.9395930568952917 0.1101123632924939 0.7781815350843077 0.613979546001022 0.13214619005559475
-0.03526133217328288 -0.9993627205683474 -0.0055489811313919404 0.9003230977923414 -0.06330592765004242 0.430593403463139
-0.01058484909056781 0.9998865342332363 0.010718191488170348 0.9991653393869676 -0.008249155423482674 -0.040007199383674016
-0.036975496703070154 -0.996291905367386 -0.07768688398297971 0.962091837052869 -0.27241759339880883 0.01295962511173966
0.0 0.0 0.0 0.0 0.0 0.0
0.05708964883660456 -0.995300316508859 0.0782179771732707 -0.9625136425231382 -0.14977136356591086 -0.22613276324417966
-0.10597346223940372 -0.9931401368215881 0.04941957036429121 -0.9948399154022598 -0.09007506523285577 -0.04669074154178032
-0.19512110248395034 0.9795361330317377 0.049363138582120616 -0.9930703699635494 0.10777888661303024 0.046850313776056
0.13671220744276424 -0.9888732783369224 -0.058646497997017176 0.9464557381302328 0.3214434098118795 -0.029927747139873857
0.1412947749808241 0.9889782294668188 0.04424757850769423 0.9958066300648919 0.08130183790221514 0.04194242091874781
0.995752599404281 0.08541444558510354 -0.03436761942595126 0.36639698805293447 -0.7752711575186982 -0.5144976962682686
0.0 0.0 0.0 0.0 0.0 0.0
0.29381518868011103 -0.9556096107064019 0.02197514110148023 0.9482374368724742 -0.31745550081557444 0.00823215132594559
0.9950448983920227 0.05331007125157523 -0.08392667327590982 0.06075385652404572 -0.9228641666046725 -0.38030343005883976
0.06670465792073914 -0.9972663983521893 0.031783947667489945 -0.9934474757099294 -0.09845351356407406 0.05804324829347414
0.19038411869115585 -0.9817095571006781 0.00048254262227942724 -0.9987301206184207 -0.019217424992651177 0.04657077137182618
-0.9996841338390617 0.007090842467013114 0.02411125263342619 0.025549229316365055 0.9959571547197991 0.0861195845541644
0.08488662337034349 0.9952915084326143 -0.046787545508529746 0.9376212714150862 -0.05388009581417871 0.3434578382640472
-0.16448357981775635 0.9861824272883642 -0.019732513219702312 0.8882140586058329 0.4552727521873587 0.06166447284053948
-0.023876673778537 0.9975173964300115 -0.06624913787186067 0.9619317290301973 -0.11657811920273996 0.24717785258418015
-0.1495382757835242 -0.9886948777445385 0.010988302753517965 0.9838775623081424 0.06040089647520663 0.16833500554423875
0.9987249344987671 0.04691870374540041 -0.018631705485131163 0.030999287651134716 -0.8876228213970282 -0.45952668159781707
-0.9791344560295757 -0.20084543618352485 -0.030932632928941203 -0.028239880361718893 0.9984400187270636 0.04816677445560033
0.46557940253569363 0.8840935103454886 -0.04018065329854732 -0.9010796396518059 0.43113462871914743 0.04667349273596699
0.5708970577413345 -0.8208209469071424 0.0181527568360704 0.28001066386427276 0.958688710305778 -0.050099749046612005
-0.9982703957274583 -0.05867935622389015 0.0035986340872168824 0.026771791750961994 0.9615649400808921 0.27326934912952433
-0.9935062544605142 -0.09899495930015861 -0.05608315594721891 -0.011715939336586087 0.9841602060082866 0.17689382599511047
0.9944291635384144 0.08932329524565585 0.055964163808161625 0.03096123034658093 0.9987662129774333 0.038825945321940544
-0.9959289515882814 -0.060543881220255655 -0.06678294569015603 0.17410487068430286 -0.9830442396923109 -0.05754578013867452
-0.5659825537081199 0.8240921897335671 -0.023147607180214785 -0.9269314982615808 -0.3750112173779662 -0.012829044049987758
-0.9999598926423805 -0.0013049007249837177 -0.008860606115654507 -0.11812484946237195 0.9921368802544375 0.0413633990199555
0.44863848254025107 0.8926187488184636 0.044218562185373254 -0.9338671336397456 -0.35670918288162135 0.02550951891768077
0.9988238370218309 -0.04686556262978783 -0.012432282026251275 0.11060620217355434 0.991469335817367 0.06895523311984476
-0.15492893904350424 -0.9870431919508103 0.041746389908712565 0.9851014608823149 -0.1696817512221777 -0.0279859798775047
0.9988007160018197 0.04775362615065039 -0.01080374489314626 -0.001248686106359057 -0.9023080748132057 -0.43108998934085
0.02445252381987896 0.9993489704163248 0.026527521683529585 -0.9331636814772865 -0.037355862375843395 -0.35750536096388036
0.9922704649074792 -0.11587471984166765 -0.04441141490551888 -0.09791829034149856 0.9943629920298921 -0.040672453798101714
-0.27839554917034676 0.9581018921558502 0.06735489922433775 0.6897546555723363 0.7227834130242611 0.042692540019166184
-0.3411912157266729 0.9397070540611946 0.02322082812016022 -0.8237320818243833 -0.5668994577017952 0.009511163476568982
-0.005699417920519167 -0.9984523761594604 0.055320603547816316 0.9999363715492406 0.01037240553277465 -0.004434642759291632
0.09870564536068137 -0.9924633915389742 -0.0726196394158502 -0.9975387504039656 0.023836479220702162 0.06594136562777714
-0.9955744823296085 -0.0818369654338275 -0.046196982831291124 0.1139407793742464 -0.9895034980780071 -0.0888837785367871
0.9941470187834054 0.10557573702797035 -0.022923106139179455 0.07820553700617063 0.9948499234855134 0.06447886260197874
-0.1380915396642588 0.9869230590924185 -0.08314807336803927 -0.9838578646020542 -0.00035588890499968425 -0.17895132188328042
0.041317821828348575 0.997314604214331 -0.06046832079835664 0.9749615110239638 0.056933044523673905 0.21496204423836007
-0.06607470439401605 0.9975246588615179 -0.02405594318366205 0.9996867597700452 0.01384947683064605 -0.020846446507387397
-0.023989411713164658 0.9984606994387644 -0.05000739747187326 0.9881485373315875 0.1499629185045534 -0.032765702236344944
-0.05438830284081984 0.9800929733522009 0.19094417011194004 -0.7947089773605583 -0.324556307689228 -0.5129335672791077
-0.9980895724102516 -0.02471474967127257 0.05662496441153352 0.07004157171368729 -0.9971565091776073 0.02780421616598459
-0.05262506607045782 -0.998321326563534 0.024189488409339245 -0.8687719457588178 0.007453046558420736 -0.4951562968997119
-0.9854473015207907 0.14656560501027907 -0.08609378231534841 0.059741384820345654 -0.9960295431384842 0.0660008798054228
0.02154794973642586 -0.9996190528240907 0.017246306654587897 -0.9869108837605847 0.09301381599044518 -0.13173965822711592
-0.9979422747499469 0.06349276952501894 0.008937812089338831 -0.14470253706999975 -0.9833742543153988 -0.1097098524068774
-0.9991815811818506 -0.02713128501376274 -0.03000101998997449 0.23537059430283344 0.9679718925722632 0.08735615907079369
-0.09645905446396419 -0.9953306571302467 0.003540309109281104 0.9391679178367478 0.33898072770972504 0.055278280975198775
0.0 0.0 0.0 0.0 0.0 0.0
-0.983754438524219 -0.17951884020334632 0.0004366874671967775 0.4217815956047629 -0.90509053518181 0.05395747152531366
-0.3098543326860684 -0.9488817572179639 0.06011408599172327 -0.9708727513085057 0.2346925351033685 0.048223591046361064
-0.05300142534240506 -0.9965684311395165 -0.06357838443839295 0.8555089888845199 -0.5130190330135264 -0.07011306371606121
0.5561534150535037 0.8309948538572458 0.01187146945832446 -0.6277371431331341 0.7753203514354778 0.06945812969709446
0.9825592958786636 0.14988909606476172 0.11004766677814382 -0.06855303045592366 0.9236690497059206 0.37700924210245923
-0.9997819733212496 0.01706105996981091 0.01203852377057643 -0.05755087654081696 -0.9882166883619377 -0.141829734020581
0.07335362680939052 -0.997305966959039 0.00023173649858745525 0.9881852373653676 -0.008970427437755864 0.15300152968103375
0.5573392660028404 -0.8267231785865176 -0.0768227086167907 0.8981272674405212 -0.4357499567406779 -0.05907103080461735
0.9676478211691947 -0.2511768335467104 -0.023830494664574046 -0.032924216484577946 -0.9974951844150218 -0.0626047365437987
0.08827182676598985 0.9935804816567309 0.0707524633505708 -0.9980382078270128 -0.05392303777098467 -0.03181260308421025
-0.980053611994203 0.13213722399307265 -0.14844080184545272 0.5070476206782407 0.6701080706404695 0.5420866019623085
0.9992733290088953 0.037578094005912555 0.006379716479810868 -0.0901819554597313 0.9320217555368288 0.35100236767792153
-0.20752574571539756 -0.9760454928425016 0.06533192762429657 -0.999389881139154 0.014451640593909056 0.03179647088612255
-0.07114016559414978 -0.9962879474519172 -0.04847063648522573 -0.8805503217772905 -0.004708973470071933 -0.47392927361239046
0.9991176392299436 0.041832602221142816 -0.003738498494315275 -0.07773664319672655 0.9959170996636104 0.04589275435324183
-0.007246239489072781 0.9998473144086613 -0.01590093969093522 0.9772791656148357 0.11336897319695803 0.17908910735005037
0.06814171058147886 -0.9976655732506355 0.004484554549870681 0.9961559715822024 -0.06541551077793141 0.05825882963792382
-0.10851782985861513 -0.9937034505725578 0.0278806908624758 0.9954003393771892 -0.09301604507308531 -0.022938607776811316
0.08141738886191813 0.9963300383262738 0.02641332087552392 0.9988149940576531 0.011799371363218306 -0.047216337014250154
-0.05163076867120211 -0.9986362119926883 -0.007744664183502603 -0.9867084016079165 0.0246174760322647 -0.16062537181327052
0.012021918150422285 -0.9983773781251122 0.05566043776338264 -0.7342026752873702 0.5167292791516065 -0.4403831101079261
0.9843457612203839 -0.17443324095917678 0.025228293956210488 -0.06198210958338653 0.9968078790930606 0.05032166799289897
0.9945206192256111 -0.08964771419799768 -0.05377755362770806 0.16976933282341514 0.9851261456471504 0.02654902625487266
-0.10232788586978736 -0.9940047558216709 0.038516868737217574 -0.9918519908947979 0.1228257545378683 0.033815117628496386
-0.9998092612732514 -0.005226346192979185 0.01881824587219441 -0.01796927901534326 -0.9989821502045889 -0.04137352516144852
-0.9957254231207655 -0.03011732950708959 0.08731453609985992 -0.0403586792370777 0.9252506132438989 0.3772034990585688
-0.05557309145710277 0.9951843777981043 -0.0807445706688723 -0.9741038250334652 0.14217076179691593 -0.17581016052906823
-0.638895311485895 0.7692936890940069 2.9689637772513898e-05 0.39721988282113313 0.8798959480686895 0.26076710924475716
0.9963943049042072 0.08465453563742312 0.005656743804867882 -0.21353270981558525 0.976138329275045 -0.03946826521316992
-0.9976147089193586 -0.008707743666142733 -0.06847676794350131 -0.054106916791173625 0.8839461164822856 0.464447741636493
-0.3647378181478081 0.9311099645922883 0.0007468933820898915 0.9262678086035242 0.3715586343194495 -0.06302482056690639
-0.11152048378478152 0.992969520370041 0.03968265757858553 -0.9890487467540116 0.07110971754985922 -0.1293289782465567
-0.03883577385968601 0.9990547731868327 0.01952800146777986 0.9931520044955761 0.03653884168687559 0.11096850460649259
0.17948422137547593 0.9828481053452611 -0.04236763029093799 0.986839483167152 0.16075396840995454 -0.017492744291276893
0.8892561973244758 0.44271396616529546 0.11501199799241224 -0.4395896424179202 0.896752156910441 0.050956013927277756
0.14792334742436994 -0.9889479906252188 0.010027717841625011 -0.9691434206478902 -0.239755506561362 0.057256678985174336
0.03818470690184842 0.99723907013674 -0.06368802989283107 -0.9545130342922786 -0.28953583616986206 0.07123108127472282
-0.44231809464634403 0.8953792389062877 0.05148515984266436 -0.9951426339038367 -0.0865224982958292 0.04695737935173358
0.09576818391064644 0.9879084167520595 0.12192380842516191 -0.938096976708351 -0.10056294333071185 -0.3314530988229186
0.9094252627399314 0.398261292737547 0.11972315647954018 0.18540293266070293 0.9714187049227159 0.14822770418206047
0.2009967200057174 -0.9795857001309664 0.0034892185182023197 -0.9553317836968676 -0.28943295063286456 0.05974738610613108
0.006763672125884103 0.996740860599419 -0.08038600345149213 0.8941267062669348 0.07445341822558085 0.4415813873509266
0.01375449484906339 -0.9967158545734365 0.07980174881160859 0.8217099207249614 -0.22275680690997052 0.5245685952832593
0.9994431059948057 0.02563825556944624 0.021357849395743807 -0.5081271375341159 0.8589463993591808 -0.06338686874490958
-0.9979011905857998 0.044145195003756306 0.04737526343487087 0.05341513255750967 -0.9983148555131545 0.022677585312667767
-0.02604051483106627 -0.9982022269076564 -0.0539833843319272 -0.9243105941578427 0.09222609131408913 -0.37032995235127997
0.9968052631299051 0.044524229637841244 -0.06630882574497374 -0.07488598021107903 0.8469660039226884 0.5263465380973438
0.4423793182139249 0.8967386336255267 0.012663403176332062 -0.969816669565587 0.23387043226429174 0.06899455301128059
-0.9896711513224334 -0.1293789358285295 0.06174223193249676 -0.002003572014284333 -0.9995671741565482 0.029350469295677382
-0.6210679070565852 -0.7837559346039582 -0.0011356924887575236 -0.9838301648614196 -0.1680599289983666 -0.06191984313461938
0.006962854459031665 0.9979408500117197 0.06376188936715062 0.9919450980474801 -0.11581214291337702 -0.051307601906406965
0.011573030459802834 0.9999145966316094 0.006071606790827483 -0.9936188659326428 0.0742211650119362 -0.08492801614897048
0.9965501025284855 -0.06473915389405041 -0.051930098243192606 0.015559921200049643 0.9998739822279084 0.0031477795273485423
-0.9392888790305579 -0.34010672482134247 -0.04542925776212302 -0.31467642409797214 0.9479869152528871 -0.04795369251922723
-0.08374242888465185 0.9413343174237301 0.3269203396011013 0.5126641253487413 0.6424819168590498 0.5695546339812637
0.0 0.0 0.0 0.0 0.0 0.0
-0.07981473121899502 0.9952670830051349 0.0554350265345774 -0.997639643404084 -0.06347704166499948 0.026187918780080987
0.007834239795959947 0.9996143819947111 -0.026640420344871223 -0.9874872511677734 -0.1569389582897509 -0.015462604956561338
-0.16820845933420167 0.892445759853347 0.4186245094690427 0.3107579889478042 0.7167996343607106 0.624201695356131
-0.3594538925961738 0.9323561480769266 -0.03879319838083088 0.9973764287896608 0.06151177991987539 -0.038164908304246674
0.023914365473279662 0.999160542065539 0.033261303391610965 0.9992399338493645 0.012104593276076174 -0.03705446561938813
0.9736079276894134 0.10425487942479487 0.20302345494165816 -0.011647421279318474 0.8811147228295082 0.47275911708884144
0.5590888704350166 -0.82907743098826 0.007088609285613329 -0.889612473445683 -0.45508844596620107 0.03852471204204072
-0.01605223658231405 -0.9959145748131079 0.08886217066632983 0.9293628032912709 -0.007485813579590272 0.36909178052842384
0.17919893800740158 -0.9807995092499661 -0.07694194741521151 0.9972868849758402 0.048335101979875526 -0.0555210498079818
0.9943996759374254 0.0865464380192888 0.06065474888017182 0.1361561749169912 -0.9247063340682584 -0.35549921485991487
0.1929891787326139 0.9787626575324279 -0.06912913359916187 -0.7086776336065123 0.7053740780892941 -0.014947293586209297
-0.9991186797798236 -0.03762780052572548 -0.018601407006418755 0.02757078727905379 0.9627509889349336 0.2689802687812262
-0.9985217309590868 0.024736942382946613 -0.048398723991566764 -0.12869053105524067 0.9899537415164804 0.058569077799138926
0.024818598639219265 0.9988435715951107 -0.04117713740303189 0.9947116670872176 -0.09812576125192644 -0.030332067837494956
-0.9979879352654092 0.029992855547403656 -0.05586152236376972 0.04059050801885535 -0.882764936487975 -0.4680581989092305
0.009231774662688142 0.9979360161598654 0.06354905182262253 -0.9982414238870254 -0.03803400365893403 0.0454694864901346
-0.9908814886212628 -0.09289808208507504 0.09759007046121448 0.09421130932683437 -0.9340792231183689 -0.34441288322812186
-0.04907233252516553 -0.9986565061933722 0.016645985047054473 -0.9643536843364143 0.1034774168381307 -0.24354546949448944
-0.031199217845522983 -0.9965267735652872 -0.07720750205379383 -0.9956588412169276 0.07027606221894288 0.06103070526844847
0.23180181497037006 -0.9724867587766879 0.02318237650574989 0.9728007853759993 -0.2255572484987971 -0.05274997271554715
0.23687690466852634 0.9701670570612745 -0.051625705106310024 0.6568840699392781 -0.7539429042592611 -0.00856830071368775
-0.7207843776058627 -0.6895402685309029 -0.07073965700835234 -0.8298548539317039 -0.5525376915582799 -0.0777368690740606
0.47690810661103794 0.8406645507828148 0.25659651382238813 -0.6215678263633254 0.6953522501491027 -0.3607473983863924
0.9942101358061445 -0.06100749891621432 0.08845502210906886 -0.06255630745384973 -0.9968300282992018 -0.04915895725859458
0.9808702377091135 0.04727171670276827 0.1888358058643554 0.11139034593103915 -0.8860409384167387 -0.4500262728807603
-0.1089366036046809 -0.9932265555825535 0.040420609603189134 -0.9914532230543626 0.12429321489738547 -0.039644712454360874
-0.8232462932037484 -0.5390019598186148 -0.17816404810730024 -0.789318861985305 0.6125752739056611 0.04156041281830056
-0.23832702417307725 0.9705342084747496 0.03554686665652574 -0.9402740161166789 -0.012108583784644054 -0.34020311111825785
0.13049767458035022 0.9910581232668372 -0.02782360932617652 0.9996438958741667 0.02554588190004092 0.007712934556124789
-0.030215223285316332 -0.9989382148334358 0.03477762538194336 0.9985219879738854 -0.052072742162922035 -0.015564994581226704
0.3852855232171993 -0.9207064912551874 -0.062085606704052776 -0.9051906942229245 -0.4235032012314184 0.03570498059039893
-0.9985720569186997 -0.044343843779668685 0.029790445783869284 0.016434377072014953 0.9005566959631993 0.43442784050530264
-0.037213324222098346 0.9957971622546479 0.0836850055023689 -0.9454341619516906 -0.032190238973635335 -0.3242191140718337
0.011917366452667406 0.9993356338513295 0.034442231225552476 0.9885856880798117 0.15002376973517068 -0.013827719920997817
0.9937451081385242 -0.10952040911105773 0.021816050029726624 -0.024981093337971095 0.9961815485092869 0.08365564765919198
0.04414279525405072 -0.9970448524794243 -0.0628726949592748 0.9593192472817859 0.2816751234761571 0.019123457046241438
-0.014118139046048726 -0.9992655346322077 0.035624000983669496 -0.9293773293719456 -0.004482625417949825 -0.3691038955617139
0.13400154468406258 0.9889570931603043 0.06330445411032465 0.9995109112149416 0.006726125841402615 -0.030540098124314935
-0.004196717616706214 0.9993311900911542 -0.036325749438143214 -0.9709916372863882 0.08415157787514238 -0.22381633600124662
-0.9958485500087881 0.00017794410315361223 -0.09102545677605972 0.08218692110484595 -0.8911306886904109 -0.4462414208401768
0.0941326526443305 -0.9926813624783433 -0.07564890147438987 -0.9933285065202321 -0.10949635179061062 0.03618047925099875
-0.7791520882004956 -0.6234829332511327 0.06473836109580637 0.4111035597967516 -0.911515033520008 0.011584765403649841
-0.9772805500474037 -0.06398959152834154 -0.20205954240045246 -0.040751124867756845 0.9246113876644024 0.37872566274721936
0.9965618829869465 0.014568440385954989 -0.08156086023475066 -0.4189826390486241 0.7626963805970157 0.4926944075185575
0.03341100517331743 0.9994048509649688 -0.008581876309824633 -0.9786508069425058 -0.0515498470275587 -0.19896032605074193
0.9608474778489965 -0.12696888929259842 0.2462742890823685 0.031202905220664826 -0.9170092055869916 -0.39764367915824433
0.03116731520812774 -0.9984576101058374 0.045945612243790304 -0.9905200947046302 -0.05021852953706878 -0.12785945908482782
-0.9745894909754186 -0.2239652253030367 -0.0038603024796871146 -0.2570154702466053 -0.9658693236501863 0.032241241996049344
0.9368483334030828 -0.34736090178244444 0.04068911540883074 0.3390452054365804 0.9407007569216717 0.011420796708673294
0.10446815155524483 -0.9915406230354074 -0.07702985253255235 0.9931053982298179 0.10449307274007932 -0.0531306479927663
0.998028569806721 0.06236351619688583 0.007054480640816762 -0.06267281841039192 0.9969802650617938 0.04585268705117769
0.10158201245528638 0.9942832055582618 -0.03289379714051514 -0.9530639168361684 -0.010198343425627147 -0.3025973632011258
-0.5794320059839686 0.813035091707059 0.056854991815040015 -0.9076483589793299 -0.4182014976595224 0.03580452202532048
0.9873644439179267 -0.15411813542229227 -0.03686536613950033 0.02239866669170584 -0.9994094213698282 -0.026059704673288237
-0.095793689236772 0.993421361979732 0.06275003318519526 -0.9978455445126355 -0.06534451899621599 0.005862007628387542
-0.9982074013356989 -0.03770273948841096 0.046481042949788776 0.09271118074578995 0.9952896874976997 0.02833857663067399
-0.9983292993216708 -0.04263113066255332 0.03900252317907194 -0.040203650885171034 0.9946584272411857 0.09506986680118128
0.991540507491585 0.128759425328112 -0.016383906509268922 -0.06699717456799266 0.9936918470452522 0.08993270659610687
-0.04778286876320159 0.9796101012108692 0.1951431450458591 0.6841836443181549 0.5223960766231655 0.5089155921921159
-0.9036603266611701 0.4281957939380419 -0.006809997973366677 -0.31296643955869613 0.9497535096819023 0.0045031718667685695
0.9996213801307458 0.01563375275581645 -0.02264248573529518 0.41664668726533965 -0.7907038749663494 -0.4485453378467088
-0.24970122952218088 -0.9677701326371682 -0.0327149255012004 0.9940500994566028 0.10407626003108426 -0.032133033909987875
0.9991920740396394 0.02841524032922582 0.0284213527720986 -0.08830586178883719 0.976460359823822 0.19679237908634287
0.9950892021767921 0.09833448183601541 0.011305281650535135 -0.18136455807507787 0.8283127148355864 0.5300989940717983
-0.06433254664946175 -0.9971998258200447 0.03812913356040135 -0.9332437879235347 0.03793108235896943 -0.3572355879433201
0.9712775099572025 -0.2317293067513953 0.054051152104780474 0.2863254344453455 0.9577244925731649 -0.027956071168135276
0.9106123224373343 -0.40879425223859345 0.060600804961433045 0.14836585372832478 0.9889305805249662 -0.001969860405929288
-0.05880161030439091 -0.9982432117505627 0.00727054465166752 -0.9987498057618789 -0.0036688430637877643 0.049853436001769245
0.018891144353703544 -0.9984866899120588 0.051647407809761105 0.8621956063759586 -0.11580574849518564 0.49316099294395027
-0.11393241513702304 -0.9919294380829324 -0.055636270952709274 0.9242308373362724 -0.37606066213579464 -0.06614935911012354
0.9985771649809444 -0.0445046350896869 -0.02937657287965489 0.007081123600318906 -0.9999617732615632 -0.005129298601848626
-0.06259496767469064 0.9962027017843381 -0.06051484924701764 -0.9978546339330271 -0.05286487196981536 -0.03861909954931125
0.9855027337349748 0.16633952416893402 0.033399468560803995 0.2805700198580794 -0.9586193655628336 0.04826360870000515
0.9987561028923088 -0.002623909527933234 -0.04979319264876633 0.14730965176718785 -0.9890559329400759 -0.008260024955522093
0.9146150294405866 0.40187318424417107 0.044466748327774766 -0.7086285617223098 0.7049189752462917 0.03057449671030849
0.7649782885190041 -0.6440092618141056 -0.007764585770420243 -0.7829636959663545 -0.6167011946742094 0.08153212425853304
-0.9883752410351646 0.15026436017437364 -0.023130174449545515 0.018808938386445977 -0.9972594105971698 -0.07155341929048888
0.8402717153038972 -0.5420937610204415 -0.008820358437091901 -0.8470326461940463 -0.5275925168758897 0.06466708914181483
0.9993245342558524 0.021783407659979645 0.029596594145988486 0.5706440657150118 0.8182517993897225 0.06949347494350007
0.9455178580144815 -0.3245339074214759 -0.025956176711059584 0.08188549740950456 -0.9952606548067031 0.05244992190395004
-0.013762607082840038 0.9989280319390372 -0.04419703217055632 -0.9332902422091257 -0.09005816916451578 -0.34764759450335203
-0.9872195115534744 0.08236566820941972 0.13643142126554034 -0.24424786147634542 0.8067595162980546 0.5380353752559034
-0.06788095001258226 -0.9966497973616321 -0.045621903121278805 -0.2845037648447736 -0.9576452158414321 -0.044421260283413394
0.9948623299630329 -0.09814055944295146 -0.024847032272484252 0.37560124994214317 0.9245201910114066 -0.06470021216450438
-0.981622819218637 -0.18738362146069035 -0.03611120598279562 0.19088775205228356 -0.9798085285226648 0.05947363744278894
0.9907149168314533 0.13226877771771983 0.03144716217255873 0.08123245511621591 0.9951819726753353 -0.05490108831180269
-0.979054426934398 -0.19609027098742846 -0.05478170063291407 -0.19964077490811677 -0.9798195844088573 -0.009856115002407738
0.08288202652603908 0.9961071736037425 0.030017800953779136 -0.9995792152180728 -0.028523315851278264 0.005273799092669274
-0.04696868304245765 -0.9974324831748208 0.05405908176216121 -0.866118678112632 0.08509331927869586 -0.49254193977626
-0.10817040565650748 -0.9932336617223789 -0.04226176240600435 -0.963661558241517 -0.003668903498299528 -0.2671009927249459
-0.9991281489048873 -0.037680300451486244 -0.01797601245491457 -0.1490879431805409 -0.9523335368794121 -0.26614586176182636
-0.7156750732814589 -0.6983925362027068 0.007553466749074376 0.8398767969311188 -0.5403321923045388 -0.05145957574732894
0.2586140828876816 0.9634515145937851 0.0698565326873935 -0.7320459967072123 0.5197216444632592 -0.44045212109984166
0.9562154458841582 0.29198633468350177 0.019899784186130635 0.48518440255574036 0.8716137053282624 0.06989738335993739
-0.0016525878861528651 0.9994712657090704 0.032472418683970314 0.9898661161791305 -0.13627733912105178 -0.039919404836872056
-0.03069694290755182 0.9969305628347092 0.07202187571981447 0.9992915648248313 -0.0035925603502597932 0.03746280795762264
-0.2170812368599158 -0.974089281920152 0.06344925099362186 -0.9901550873626991 -0.12752938038369022 0.057698874414651734
0.9930260519435207 -0.10769017727788462 -0.047980057100026924 0.05672228159850993 0.9968132899206718 0.05608785793544093
0.023626663572553493 -0.997873064712453 -0.06075464994390101 -0.9970231444148628 -0.07700432938017827 0.0038965058460887613
0.028762710128577108 -0.9986643104152337 0.042922041061964816 0.9895827248783332 -0.09553745858652048 0.10769691095478201
0.13551010342845599 0.9902562635656815 -0.03208651333106609 -0.9740430981630948 0.2254028331046667 0.020823202184811304
0.014560968665056089 -0.9991511753140786 0.03853449182266173 -0.8439309938201218 0.08276549934867185 -0.5300286311015154
0.0017484783207759728 -0.9991964755441534 -0.04004180420140722 -0.9715768963554398 0.04482409402622809 -0.23244168099344573
-0.9977098055884609 -0.04434245788543213 -0.05107729692646712 -0.05304914281315745 0.9980076376801639 -0.03415470068450445
0.1158509199548772 0.9927051982211859 0.03339092347097979 -0.9981225639879905 -0.05853526941723451 0.018026910225867696
-0.007282051870804471 0.9997951473324804 -0.01888478464199837 -0.9884190728251951 0.012387928836932283 -0.15124244012350788
0.008044565674835146 0.9987031261245622 -0.050272764317570086 -0.9997723768568729 -0.013803994147255983 0.016267889215915817
-0.027474851992446734 0.9991481190476083 0.03079234826412941 -0.9954018262343474 -0.09499978193792089 0.012257477761498124
-0.9902451349584713 -0.12850849074731174 -0.05385295253676354 0.41303601716408345 0.910045476672959 -0.03490671729507036
-0.9977667661207139 0.021251262717542973 -0.06332348899044023 0.33558728181907144 0.941235879883772 0.038160119243901884
0.9581009227088223 0.2855969263537781 -0.021840731713428582 0.15001191453914 -0.9877076633316171 0.043931734455842066
0.0 0.0 0.0 0.0 0.0 0.0
0.9990671185490395 -0.03679669809642864 -0.02260300075918258 -0.02917681697033178 -0.9995440906612074 -0.007766863957844071
0.9374807898675148 0.33968085231629713 -0.07580690733075922 0.25901041309620904 -0.9652686693553724 0.034205290068059155
0.03149776059325609 0.9994871945380517 -0.0057653301783123405 0.4059694643628056 -0.9137610798229818 0.015148696502178437
-0.9980200441907926 0.017347575272811794 0.06045703454158854 0.11167351847865903 -0.9937390589398224 -0.0034216966541024863
0.06617205211795471 0.997143556832671 0.03641409871998179 0.912962145771703 -0.11061692434810956 0.3927645814424874
0.9932896130918715 -0.11121261262796348 0.03174112972568358 -0.49899696119179254 -0.8663209033765511 0.022138769030666316
-0.9500814694698941 0.30740154697920874 -0.053380617125656005 -0.40948715544769776 -0.9114732426011435 0.03920200945755573
0.9997888657498879 -0.02029971764787253 0.003185182250595181 0.3281392793945102 0.9435331561938085 -0.04549501600616896
-0.9857484851443435 -0.15892525301392962 0.05516056553453994 0.04667330091452886 0.9971872815853161 -0.05864408261904469
0.0007687600967824066 0.9950125929667174 -0.09974642272063187 -0.871591162182437 0.060038786318638175 -0.48654310204015205
0.9961230560090808 0.06535459617691255 -0.0588866202603127 0.17083225674196642 0.9850971691714933 -0.019997683534784764
-0.1064952900057047 -0.9915745743807224 -0.07374697721459571 -0.9408359797041504 -0.33755900040718007 -0.02969142196387011
0.1561376327089338 -0.984815673980962 -0.07588891838386769 0.9911885031960398 0.0956533519035935 0.09162852940870199
-0.9987575949782821 -0.0010722258786291454 -0.04982084709098383 0.17170244271251733 -0.9833441445086067 0.0596033944267516
-0.11065594637857495 0.9937572641938052 -0.014204273761990922 -0.9980362338214898 -0.01276186969370795 0.06132544872512183
0.991918863685733 0.11702956031408537 -0.049000508947316064 0.07983583661771525 0.9968079102608656 0.00047878274377718017
0.9943636009693188 0.10602361684924203 -0.00014743654369708318 0.6293984837935892 -0.6540958028023484 -0.4195428814253466
0.9533752835682402 -0.30162144234767896 -0.01000370917626976 0.7504467553767834 0.660285181161467 -0.029208678214308247
-0.9990672374274838 0.024149344580870036 0.035797545381352526 -0.029632838273351506 -0.9989435709852124 -0.035123167328378224
-0.9676670337100955 0.24696044875100148 -0.05129374838524358 -0.2885180002294909 -0.9574724293403057 -0.0019775228819591964
-0.05733859481269101 0.9945816232378988 -0.08671608998549463 -0.9577887762457248 0.0019863672909499796 -0.2874660231100407
-0.12124880095230246 -0.9925559944021871 -0.01145976631151068 -0.9605381307846631 0.13227639045214265 -0.24468235702162455
0.2516895511328087 -0.964579089974566 0.0789908161396205 -0.9262700577100826 -0.3731180835254865 -0.052978070331299386
-0.998201613330397 -0.032747913683040926 0.05021068904128609 -0.08961302916887066 -0.9946084845910881 -0.05218685066756271
-0.9964699097162933 -0.06803120910326864 0.04918814509563817 -0.018192607135231142 0.9998336052340037 0.0013382415319219871
0.9585338285255668 -0.002469359271396398 0.2849680716096247 -0.043122174604315174 -0.8736752940868467 -0.48459463323447644
0.10814190872669471 0.9926949270379266 0.05349868605968591 0.9850706801965289 0.16421891062329755 -0.05165176096557968
0.07229552278301207 0.9966359717348778 -0.03860177754465298 0.9988732682905319 0.026381301557521615 -0.03944896478644599
-0.11015111583972785 -0.9925736789549756 0.051616116911754925 -0.9966415355156982 0.07920256478471682 0.02079912056876056
0.0 0.0 0.0 0.0 0.0 0.0
-0.9884903048814103 -0.1248252731173318 -0.08547261752537952 -0.57399615363014 0.7113833121083314 0.4055393925028554
0.11804076732268333 0.9909475740932989 -0.06394749915733836 -0.9999435617760744 0.01043609754613069 0.0019902589243023265
0.9760623400206684 -0.17207237355500518 0.13301656533125428 0.011102404710142335 -0.868993500608727 -0.49469893117879526
-0.9920014129634174 0.06660168345860405 -0.10722598770383622 0.3223927145187502 0.7785361688573944 0.5384648283835095
-0.03474797435201994 -0.9993909870388463 0.0031989535714000514 0.9244480098424026 -0.04569798458135466 0.3785598648874751
-0.019954870571490327 -0.9994677286669084 0.025808186567177857 -0.9603926635376392 0.18176343849262208 -0.2112060232342293
-0.9865438847148704 -0.16312149959109595 -0.011069774290590192 0.01785040647966759 0.8716951737855225 0.4897232759299256
-0.0673920359522814 -0.997264491122124 0.030361953776679936 -0.9535930856253662 -0.062055776367750615 -0.29463419296967014
-0.10931071474711818 -0.991979115001534 -0.06347127730121241 -0.9960314323839945 -0.04871951118679538 -0.07448352121649474
0.9856196462131722 -0.160702717627636 -0.052235519962126976 0.0021897419559276333 0.9999546925503285 -0.009263793863445233
0.0 0.0 0.0 0.0 0.0 0.0
-0.997651924455715 0.0587374425750215 0.03522144899850175 0.13802867264241922 -0.9904205196985513 0.003908924228426007
-0.9980651491218607 0.0034706175306640254 -0.0620798914489546 -0.03559952319690917 -0.9895415457444896 -0.13978627684346942
0.031410578198913616 0.9994888692742628 0.005947753699126315 -0.9387091111722436 -0.06763724973230402 -0.33800947775301543
0.7659183455553081 0.6426222285934133 -0.02014346691745017 0.4386561399662108 -0.8986435430504027 0.0045357914152694264
-0.052189415293576444 -0.9964116268559934 0.0666343364753274 0.9550359808099785 -0.029082214832829058 0.29506016359166376
-0.9983600843160587 -0.05104412586947487 -0.025916003909811348 0.12255649613864514 0.9803246835126814 0.15473661541464293
0.9975437031416572 -0.0614591964113375 -0.03360546828868526 0.007906313777442468 0.9928934776780179 0.11874355640161646
0.9977986168481122 0.04150650086494446 0.051721664725166906 -0.05890286275113868 0.9982480412187883 0.005594726317941592
0.010395862660325366 0.9975095083786084 -0.06976178562662136 0.9922457475553668 0.08191239629876436 0.09348120554895262
0.9982652477870396 0.036526253476326626 -0.046177135767212336 0.013516589525832378 -0.9333403509509904 -0.3587381929684543
0.9932761669029241 -0.08111090643796766 0.08260434080268204 0.19216267681299623 0.9803924504269601 -0.04363655332269582
-0.9905484249352314 -0.10045428246305532 0.09339569044214531 0.045814010419503295 0.8836950630782127 0.46581553424126526
-0.9869405505968478 -0.16078128915483259 0.009885678798193888 0.25759333656168854 -0.9652077411350757 0.044940954728856466
0.9816227516028101 0.17884277013596644 -0.06657354659188304 0.09896653502702984 -0.9940379142580793 0.04576297588871462
-0.9989550360413728 0.0416301092109149 0.01886186561999489 -0.11551752483954839 0.9767253401949275 0.18072994017607452
0.9987891782249068 0.041417127985172816 0.026548050216079623 -0.034474251653386814 0.9789812257335442 0.20101563529782052
0.9800885828173909 0.19802292529655222 -0.014604481777673352 -0.257262779091289 0.9662024463886743 -0.016391921387307745
-0.9417131823564237 0.22304365811829618 -0.25184878151252943 0.009086026444967523 -0.9224197887553316 -0.3860818273837955
-0.999553932044093 0.023925574521552175 -0.01787466975936403 0.04716995366074084 -0.9988588063911578 -0.007488682559378101
0.06382190548028653 -0.9971838851709828 0.03938354397676452 0.9915232675308264 -0.12229865210391579 0.043870829016084
-0.9917949505099574 0.12620977904174757 -0.020343741474572203 -0.34458440069692275 -0.9382278701610426 0.03146513069123298
0.13883351913376432 0.9903084142184253 0.0038077149476287487 -0.9382600774845409 0.010317604967198619 -0.3457767690670448
-0.3651367043796124 -0.9281502625416425 0.07219610279423655 -0.9679623662454745 0.2476040909483456 0.0417261510099532
0.2988150364917192 -0.9537625822591077 0.03234981682933252 -0.9932999512548927 -0.10066977474273382 0.05675212146056661
-0.9998000577409621 0.014202553697653534 -0.014075937255981991 0.3110699493380466 0.9488287844583525 -0.05440059192794197
-0.0722949190293508 -0.99486515598645 -0.0708291330357513 0.9113501712769769 -0.01087898120615584 0.41148816882304257
0.994897996407407 0.08716220427127418 -0.050800855220163074 -0.11796077489149653 0.9929138852761593 -0.014396944564716142
0.06541537215507028 0.996382885345148 -0.054239974899435356 0.9967809479116333 -0.07127325226780949 0.03671328630829643
0.003409036481452765 -0.9993398811160308 0.03616877771318288 0.9915522028090178 0.010472842430576683 0.12928475809626128
-0.760589003058828 -0.19305012051408138 -0.6198677434707156 0.36980662970342965 -0.8858227903756447 -0.2802874251166058
-0.8506009893582943 -0.2911714198857512 -0.43783234364812096 0.18033884708726355 -0.9277416396684969 -0.32676191677801963
-0.05861234306054744 -0.9966036632298498 0.05784230007353395 0.9540103582240084 -0.29712234110977714 -0.03978128724343142
0.0 0.0 0.0 0.0 0.0 0.0
-0.9973868349958908 -0.05468144974872113 0.04721695066665948 0.0063944608585715015 -0.9993755573620684 -0.03475062902428396
-0.2570162569794466 0.9658434653265503 -0.03300066869437535 0.9887549965211924 -0.14070666570922186 -0.050647715440781026
0.0 0.0 0.0 0.0 0.0 0.0
0.04717490765420877 0.9979227407872574 0.043871762073855534 -0.9075534359203286 -0.0021953643407753563 -0.4199308768411979
0.05624794125198269 -0.9975795646028108 0.04088008551580809 -0.9988625022829077 0.03572583954567379 -0.03158110070730075
-0.049352678312462865 0.9987412926086933 -0.008952294773020918 -0.9711664996400555 -0.07123990965838276 -0.2275093520028298
-0.9947387544270188 -0.10231239261561773 0.005194685577677364 -0.05344107666409689 0.9985308457626748 -0.008955522623459574
-0.026886865527669848 -0.9979502300916503 0.058072667599476546 0.9415445604655767 0.001973466198001554 0.33688268891240103
0.0 0.0 0.0 0.0 0.0 0.0
-0.10310876264791997 0.9945036794584267 -0.01819380688217307 0.951604897243518 -0.02539859720255861 0.30627280454244654
0.9742186046253366 -0.21903604399541138 0.05404925376638067 0.07405281595338739 0.9969398062016948 -0.0250440264314877
-0.017439617139197235 0.9992662808621574 -0.034099262249354924 0.9982866310738417 0.009974590915510166 0.05765682748216061
0.9943173446764499 -0.10405685095669714 0.02247642864312842 -0.1248977095005848 -0.9909115379280553 0.04994883544752228
0.014043650735570167 -0.9966907152218876 0.0800649365484011 -0.8912922642305352 0.013423530999096576 -0.45323052472039216
-0.9579852600412693 0.15720285433653822 -0.23989894566693462 -0.5787551261212566 -0.5771103476004981 -0.5761823935880032
0.9835433506926466 0.16229265328597234 0.07939503761369814 0.20496867703180058 -0.9787646037479627 -0.0027734249452496377
0.9868259800923993 -0.09852310919401186 -0.1283264663638033 -0.06101259158809225 -0.89688809658534 -0.4380287728805386
-0.994403150825192 -0.08806440288548263 -0.058369808748647556 0.17117474876326644 -0.9833859020076913 0.060426592807738634
-0.958583736418129 0.22589578913951358 -0.1734598302884426 -0.28126663292656134 -0.888770325040435 -0.36190660470579233
-0.9685623397907658 -0.24623141601666687 -0.035455376256137795 0.21790582931008096 -0.9759658691464399 -0.002769803949727056
0.9999806022371318 -0.00551596208584877 -0.00289297627544999 -0.018199992971753957 -0.9907052148648394 -0.13480332894791822
-0.9948251076772702 0.09262541758215607 0.0417556840758105 0.12357762322126752 -0.9763343632233327 -0.17748177998958617
0.9990279335887866 -0.04250063859958266 -0.011699727686865115 -0.03546537877113365 0.8663864883168698 0.4981130993766198
0.998905472510488 -0.044982678611769904 -0.01282246518844682 -0.06805604550554537 -0.9152308509147666 -0.3971408619167504
-0.9990282427103282 -0.02663529817402443 0.0351159672840488 0.1765640110433526 -0.9644583978912241 -0.1965836939864954
-0.03382909087822046 0.9992883737754708 0.01668348427422289 0.9835573191890166 0.17888604218710863 -0.024794833743078646
0.021423437256183196 0.9995473179327767 -0.0211233413437089 -0.9976539738206899 0.06709703263655838 0.013584429732420645
0.0018485055454759958 0.999964683785416 0.008198427238282065 -0.9936973163491645 -0.10379252316978659 -0.042340944894013244
0.007730727376438829 -0.9976976804486428 0.06737636292965814 0.9751386509984373 0.00697613703763569 0.2214857666780873
0.04290496511169051 0.9987202756729108 -0.026776387519414527 -0.9963831873351991 -0.0714992931721073 -0.045917263329151116
-0.6131303806641692 0.7898372326633893 0.015109010730347167 -0.7671344938546317 -0.36591050143334863 -0.526891044979124
-0.23463987139513373 -0.9661679334213505 -0.10706846024853398 0.9690949490438964 -0.12703939662688504 0.21146151291023374
-0.9989595039969154 -0.008046687980764277 0.04489053560358839 0.09445351964561173 0.9871145495830548 0.1291642312252077
-0.04163927234136562 -0.9978959083104774 0.04969836190548673 -0.9993060476723594 0.024387401060551227 -0.028154533470828417
-0.029122384529135917 0.9981609442595117 -0.05316592963822872 -0.9986909734725302 -0.008229006173948913 -0.05048388814145684
0.8992054721323864 0.4359133365253403 0.037537740029432415 0.9941421601509167 -0.09929977492641998 0.04267224050869056
-0.07226977647567989 0.9959502248312309 -0.053481109438529996 -0.9899778215858144 0.13239654176162752 0.04914334642418183
0.030779542685140448 -0.9980310995498655 0.05464928255137467 -0.9021041249367372 0.0012567702627031537 -0.43151659099115813
0.0 0.0 0.0 0.0 0.0 0.0
0.9711785718282715 -0.00918626682583442 0.2381759730186981 0.3314541485258831 -0.9048847237448999 -0.26706138649774513
-0.9998189062705167 -0.018326107785336207 -0.005129175125485957 -0.10680936932340673 0.950935147145038 0.29036891112683005
0.029431105151492432 -0.9980618088218899 0.05483097501174986 0.9850889373720076 0.11654497471205841 0.12655850163720544
0.013657277378574707 -0.9999051922173601 0.0017565168285166284 0.9105119607188382 -0.01889636392274171 0.41305071942612104
-0.021716320305139345 -0.9997629904209978 -0.00153766604576762 -0.9740455044408558 -0.018159318220852295 -0.22562268157326887
-0.033975512634565996 0.9982646530262362 -0.0480972666544244 -0.990955538289703 -0.1341536366720829 0.003150063589791088
-0.9464616757018158 0.3203609352057275 -0.03973874207649737 -0.38130388294588025 -0.9231793270886464 -0.048448724302593095
-0.08897077736931136 0.9911701962324743 -0.09831501856165654 -0.7586652307182616 0.45325776764316267 -0.46795775853205346
0.9974775842308089 -0.03981322565121113 -0.05876543218861991 -0.03994738283399639 -0.9960414438992934 -0.07940811444509176
-0.025797608169372068 -0.9978788498027947 0.059768591492445185 -0.9983348843029628 -0.041790006785039135 -0.03976247120962632
0.021303220946487664 -0.9997181807361962 -0.010475298698146385 -0.9919983471744348 0.09973985515411551 -0.07740310392371702
-0.05141120213912303 0.9984183076969719 -0.02275458525495455 0.9935870046276637 -0.10425618947752852 0.04376655333302812
0.015618293426071675 -0.9976646040831684 0.06649365887084124 -0.9942635261417305 -0.10397264598757842 -0.025094411141810113
-0.05186177900447599 -0.9972538537667762 0.0528687717448045 0.9900365874621895 -0.10634936743418053 0.09228958517932477
0.9425642340536942 -0.32702151949475367 0.0680410939808835 -0.053749471113699286 -0.9982819255861763 -0.02332791038548956
0.023342291626987987 -0.9995669538857299 0.01791764831678332 -0.9983878607172462 -0.04463492486522704 0.03506284436146176
0.05067330608013959 -0.9986945557873006 -0.006434305845629009 -0.9952900576233165 -0.09144357465493348 0.03218344062562578
0.042622051838146054 -0.9979505794866107 0.04772841501081316 -0.9999936793346935 0.001750674115741375 -0.003094580876753899
