0.0018883131178168157 -0.9986227387608817 0.052431478171846006 -0.9321206862143918 0.3616103222431058 -0.019723112798147154
-0.2645383821225219 0.9637100495923117 -0.035810399310574136 0.9203984790269384 0.3891638217585693 0.03765846039289071
-0.060658863646560555 0.9910994992160173 -0.11850014732002667 0.8632115341569085 0.0038555926059281537 0.5048276752557587
0.00857873355922913 -0.9985850195955879 0.052482034733791746 0.8541220812011375 0.19512321481606001 0.4820813224389461
-0.001388249767364925 0.9983410477146561 -0.05756062204828647 -0.986281020191497 0.10753522406057542 -0.1252434620898895
-0.8393020034444157 -0.5343825386197681 -0.10003724022823669 -0.6556223208819008 -0.7474098219883261 -0.10741475856142252
-0.2205304905117663 -0.974899055890571 0.03062896632785816 -0.9788336225730268 0.16304129952568433 -0.12370236040408289
0.007291762187390443 0.9981355534853312 -0.06059906824971837 -0.9793569968618572 0.15200638222104668 -0.13324388339354742
0.2024668416221531 0.9792533386673056 -0.008371185847024015 0.9880782669635023 -0.14766425396210903 0.04355004542151088
-0.05970298710722477 -0.99794385123443 0.023315726749741514 0.9891889604216894 -0.14300990689090887 -0.03245561755553412
-0.19213117529889956 -0.9808457884627587 -0.03204919239439102 0.8556433350971139 -0.5139518941882891 -0.061056806042878824
0.10142926857738055 -0.9931424464536647 -0.05813935438141067 -0.5637287662901943 -0.8257864429687812 -0.016930111219458616
-0.994587158868472 0.09230970934720165 -0.0477001150331528 -0.13541790382620952 0.9883513380052706 0.06945231447912016
0.9273383590709491 -0.3741916453830528 -0.00491734899342791 0.5523172403225782 0.8324537291149953 0.044344728266046046
-0.11198513346673601 -0.9929894914800856 0.03783119998834443 0.9952260009661772 -0.09281210799502237 -0.03018475791506352
-0.23456608620920885 0.9718622669626364 0.02150547034453072 -0.8906655593184777 -0.45449717738849654 0.012131660636246119
0.7119894882239407 0.7006811556180321 -0.04600963834230976 0.8072833564150746 0.5886916573007593 -0.041661914018642304
-0.04052447330533646 -0.9971718324942374 0.06329378755778144 0.9714973387823045 0.10714477462177131 0.21145429295748602
-0.2161581650427779 -0.9758814379886843 0.03051338516908151 0.7013461704941311 -0.7128045987272044 0.004811773744297694
-0.04640317225945788 0.9981483505023688 0.039327038963787565 0.9892858090394626 -0.12631916577018945 0.073191914801152
0.999160040567943 0.01809222996392824 0.036767982637053595 0.2686528055506981 0.9576643900543452 0.10346296966343915
-0.212515601882078 0.9769259248459429 0.021280421062502112 -0.8067341356592842 -0.5907719363105465 0.01298282057010189
0.3030662659379696 -0.9522301915381745 0.0375299983158472 0.9861914697112787 0.05577576502644306 0.15593411783321537
-0.7630205430483911 0.6185813552808692 0.18750135408850202 0.34873026281387587 0.7637325655046576 0.5432308645368367
-0.12086529414530621 -0.99234642598024 0.025301215690410574 0.9883228543238988 -0.1507952465823194 -0.02187988183786495
-0.9708419941141478 -0.23968663453915331 -0.004017423024674764 0.06450902334176416 -0.9972036271336703 -0.03772945717796226
0.7960818058043964 -0.6051731010909182 -0.004390465033800346 -0.676778690997015 -0.7345117345798043 -0.049629781149364144
-0.6488423742460061 -0.39028618629370565 -0.6532076746113142 -0.8451746523582775 0.45588550998162863 -0.2790129186970658
-0.05294638115825581 -0.996828005625066 0.0594189189046548 0.996740765300032 0.07127494051133586 -0.037785309899644175
0.09655835019225481 -0.9882443758658579 0.11853074950261261 0.9214218273578019 -0.08573593383101544 0.37898702579208804
0.1935433699557144 0.975632905727015 0.10335084522560474 0.8634286853040526 -0.17229684262443687 0.4741357436597301
0.9995687154721887 -0.003568074116925924 0.029148788934957176 0.25413247621712676 0.9634327857135774 0.08493498657165686
0.43568584796076376 0.898822622874686 0.04791382363556797 0.8729084018547442 -0.48362480846127254 -0.06432702862867316
0.9598344677429077 -0.005450227275782232 0.280513973903853 0.2511796257998797 -0.9160272808713715 -0.3127344181289191
0.10366636267514373 0.99413759336434 -0.030720200348688803 0.9378566952933693 0.005294666199683957 0.34698239955829774
0.1384859553116046 0.9878726805396366 0.0702083130752014 -0.9950854706272276 0.09654637419003205 -0.021993266636568008
-0.02135553264530914 0.9997382787606776 0.00820458445462171 -0.9647837736505286 -0.032323620329621244 -0.2610506726086572
-0.8683358588363699 -0.49558408426732264 0.019729462228433418 0.09475741155813269 0.9950977761046884 0.028309873654010838
-0.9861110068585068 -0.16481628540088286 -0.020510344198881585 -0.4246068129867168 0.757457228419806 0.49595120876942006
0.9806840454558157 0.1898515550594489 0.04706580531473454 0.0028539817167088787 0.9996309294393368 -0.027015915616692806
-0.14531214650714758 0.9888781086611473 0.031693316144534085 0.9408576537839084 -0.33814113930063894 -0.021152901188844147
-0.6231599940580004 -0.7804251428267872 -0.05107071812126468 -0.7618344522148593 0.6466147803176756 -0.03869875053809057
0.08963388773742066 0.9950339025500943 -0.0432816236410456 -0.9512972944661805 -0.08103051330515681 -0.2974348894377187
-0.9689819364169175 0.10328279866190473 -0.2245142988726668 0.07474984376572069 -0.8851979739343868 -0.45916991168788157
-0.0017393740855419515 0.998640547073928 -0.052096375283473904 -0.949164210473134 -0.13793072607231094 -0.28295302854374477
-0.9848671976257192 0.17187787794753753 -0.0222395618912331 -0.007705376929156265 -0.9886313104547961 -0.15016244255742667
0.14547617206068036 -0.9815054777703331 0.12443343790718553 0.9540466027130194 -0.04117357000936429 0.2968161332953958
0.9966037315074601 -0.030867041628769597 0.07634283258102391 -0.22576716030607874 0.9714441455823394 -0.07297575858549146
0.9469533112971388 -0.3163424649764374 -0.0566292422341641 0.04949297562908256 -0.9764443388824424 -0.21001642418584512
0.7292923484234107 0.6795578953822973 -0.07958478092354876 -0.46628190691770455 0.8843576320207359 -0.02219824244992838
0.022563453548537022 -0.9994720095816038 0.02337932049640244 0.9890496600274433 0.1344676442809313 0.0608212351168229
-0.9753507691434568 -0.2039654706390509 -0.08419598516709496 0.4987761921510725 -0.8664585557688752 0.021722828503480788
-0.8937741784520321 0.4409761798279853 -0.08190071279733345 0.2688877612525071 0.8931402672470771 0.36055489855282036
-0.007501790668415922 0.9997653965658094 -0.020319324948852368 -0.9981346291433615 -0.05857759501527011 0.017202542459505372
0.051025568688195695 -0.9958070197577661 0.07592608735607487 -0.9760326154893251 -0.01391502111540027 -0.21717897156130314
0.047625909900050764 0.9985316493556908 -0.025813135051670915 0.9888307981961572 -0.13970443584856435 0.05192613160042968
0.05021432744902593 -0.9970610908145326 0.057859333755029975 -0.9679534481379093 -0.22149142711102499 -0.1183540026963735
-0.2046857157735269 0.978347700408852 -0.03065183294666551 0.8951563989924062 0.4449449768150757 0.026813969306685947
-0.9932966460939933 0.1056037713381355 0.04700655632554637 -0.2254659650114571 0.9284610505858802 0.29516974127849843
0.9772977369266783 -0.1916822148221093 0.09026107643322163 0.018621562435861022 0.9985771789568063 -0.04996854089438368
0.06502322699597791 0.9978835492688343 -0.0006340738630190466 -0.9997305835271802 0.01551517107737011 0.01726383001664578
-0.9972255011279598 0.04642147954641755 0.05819232025629288 0.09602505690128885 -0.9931616393323524 -0.06640140514912929
-0.9960539926642861 -0.0887407106090142 0.0012369228517934412 -0.11988381166931474 -0.9925784798921656 0.020391982605764223
-0.7704494094457606 0.6367838206903537 -0.03023364337413624 0.6226456438535217 0.7806920297114384 -0.0532198922891442
0.9947585430506782 -0.09366908679974265 0.0410066239258282 0.10953773881357858 -0.9777498323614104 -0.17890430149340159
0.9985678713317435 0.03263109676792349 0.04239596522916757 0.04398338150493369 -0.9980841896474832 -0.04351336032896182
-0.9932148540743674 0.09640575513320393 0.06503986487708985 0.22576291865575715 -0.9730803450951631 -0.046322203634027545
-0.9767555801587913 0.17848069205168224 -0.11871469661931351 -0.40623481243833465 -0.851962031107056 -0.33035431693127715
0.9932037717586717 0.1155719430644759 0.013762039843352466 -0.585309677059524 -0.807931641291602 -0.06825719698562116
0.9865690471338894 0.15305822138362868 -0.05704994394571897 0.1187320258765486 0.9835214141062883 0.13633904072428263
-0.9961457891242801 0.01950869355709601 -0.08551594989041841 -0.05958078501658558 -0.9248897661013867 -0.3755383477325977
0.962013427928907 0.2523250296841247 0.10422208921039358 0.19444489057122713 -0.9796602685532655 -0.04956755742305016
-0.13371678779273424 0.983773245184356 -0.11962450719578287 -0.9558927468325316 -0.026072047095811526 -0.2925564986685332
0.10801586342801749 0.9927057757708648 -0.053551993418220395 -0.9535948280165365 0.08729340355988571 -0.2881610065137945
0.10489067315259193 0.9932608974121894 -0.04930249849174324 -0.9481356801081379 0.11936017713949644 -0.294604616764753
-0.1409062378240258 -0.989719235084417 0.024520763572854678 -0.9540845408093539 -0.0919143185500173 -0.28508673598413947
-0.011069708261380703 -0.9985721416790986 0.05226030445210103 -0.9349879576366926 0.19227170915795355 -0.2980421261027466
0.9858584407383411 0.1615545292213166 0.04453390745314927 -0.07019547526567042 -0.9691579755438287 -0.23623169493532048
0.9861401876781178 0.15914639900269298 0.046903666494658706 0.1564219200249525 -0.9581531290924461 -0.23973894999782908
-0.9976606578672352 -0.021105948396333053 0.06502115568187572 -0.051262265393130245 -0.9983012773427268 -0.027690066858796356
-0.27348184441337886 0.9611937962396915 -0.03625143923469569 0.853602830211079 0.516873548890856 -0.06483781853677287
-0.014199676218062035 0.998662582965319 -0.04971332397194298 -0.9967296358802343 -0.06486929290530105 0.04818721610574509
0.9589444368102265 0.2821448590992391 0.028632945964189603 -0.013256265241293187 0.9807416144481997 0.19485932649322008
0.9946593908899829 -0.09888302784463798 -0.02957774363680774 -0.26266465518614657 0.9499625048989716 0.1690518210550072
0.9889234116927934 -0.1484239346419273 0.0009063284694889927 0.041752677948162516 0.9672663111981771 0.2503050081505127
0.9996337748601131 -0.004105808747293339 0.026748055881714288 0.02711799134582738 0.9692481619108638 0.24458662101141088
0.10282351509118746 -0.9934792948270256 0.049256628937518344 0.9429301606656789 0.3301456288760934 -0.04343473081539508
0.1590150133354625 0.9796314513378529 0.12262318330403409 -0.8818556352950696 0.07143647204380994 -0.4660766771254096
-0.9811950586516615 -0.19216574651017432 0.018126851512332964 -0.23379722333032915 -0.9628318960219245 -0.13525382939441696
0.0 0.0 0.0 0.0 0.0 0.0
0.952514390650516 0.30080612658834516 -0.04724415107283306 -0.5280117474918723 0.8487234853606591 -0.029530321837634772
-0.6288039190825414 -0.7739440323461115 0.0749417516627255 0.9751229538108986 -0.2191984389175826 -0.03297376725827607
-0.9260467744293531 -0.371550020008318 0.06624163494969951 -0.7744246949249494 0.6326651771962429 0.0010795617840671753
0.10582253973255468 -0.9928854905786825 0.05458930923615821 0.9828658037726868 0.1761084906558154 -0.05441149964116941
0.08835434852405293 0.9896716747708542 0.11288704643643975 0.8692701342899867 -0.035830769393714726 0.493037107727322
-0.5072659974706096 0.849987790206893 0.14213361428371069 0.8975691454043421 0.19534783592273736 0.39523265580974276
0.9989486225111872 -0.015417125936168213 -0.043173624018257105 -0.052278555933376124 -0.9158254145040354 -0.3981592178237651
0.9975273693622786 0.050804064690294484 -0.04856021400402428 0.01121230863223076 -0.942214126157699 -0.33482357235418686
0.9975025764278616 -0.03702518158976466 -0.060147701103394076 -0.10135888238921999 -0.959862910694696 -0.26151399510067214
0.20418987315203047 -0.9788632375838896 -0.011543734618545106 0.8973924809657092 0.07375542428286767 0.43502514007245996
-0.7241737643888496 0.6895222129082966 0.011466336683020233 0.7465159214370499 0.6653487046332491 -0.005008021949791698
-0.630747474252616 0.7759334414337012 0.009215106553837681 0.6688782333203344 0.7433526944201085 -0.005355435428885506
-0.9928241445012193 0.1172371323349703 0.023572715102309006 0.7298763160434538 0.6812375109842994 -0.0565333256296923
-0.6326627622401471 -0.7734175097367336 0.03953713327109926 0.6788537212689512 -0.733759775104774 -0.027463021637991795
-0.9858390769367491 -0.16618219954108762 -0.022467553052892452 -0.12216503894537444 0.9913927326880794 0.047076032465974034
0.8470176183398573 0.5263891804850032 -0.07399719515091559 0.5678643335343451 -0.8229845003856875 0.015053598390895293
0.8811444471582021 0.4668193227530698 -0.07526076764577602 0.15327449334254897 -0.9870655910309596 0.04699413466899315
0.9612791970700615 0.27342744058434726 -0.03434734365028845 0.020956923884197932 0.998983110968875 0.039919310368045455
-0.5499357883167486 -0.8351868233192381 0.0057964542916982146 0.9970669736080986 -0.057691285967789115 -0.0502908109237669
-0.2620262976725783 -0.9650364660443113 -0.006843868256216851 0.9421452262671933 -0.33158187120061405 -0.04915114762687059
-0.3506691191858193 0.9362192999028759 0.02290395902045912 0.8347460925456618 0.5490616833470015 -0.041596019760385794
-0.5814735098087084 0.8134092606041257 -0.01593524879603238 -0.9974228594216286 -0.04475132494420881 0.05607992884196623
-0.9866053062335488 -0.1509092553462673 0.06193840781486575 -0.3600064494008491 -0.9300721206967956 0.07322026148791688
-0.992484197392468 0.11313395252102833 0.04664575771919834 -0.15748977881509668 -0.9853697323146775 0.06514184681809916
-0.11645670526790369 -0.9928413065815475 0.026532541219985835 0.8998931299429986 0.05432983446170229 0.43271309636843375
-0.9976964772776903 0.00012056194491079978 0.06783601324152891 0.016335788066137356 -0.8770263097483262 -0.48016454891785937
0.17908789937147207 -0.9661534488004646 0.18567454771637823 0.8638368667996871 0.04192472054781717 0.5020240884307119
-0.9778069616203802 -0.17801414029230067 -0.11047403162152454 -0.06383174802640951 -0.9674740928133004 -0.24478436976035592
-0.9870695954220274 -0.15467142006638987 -0.042075712804911035 -0.18563674318154885 0.9801610034439099 -0.06945075167897996
0.0 0.0 0.0 0.0 0.0 0.0
0.9383675840911322 0.3423099915764712 0.047855478201436805 0.23787168141639237 -0.9685137417945556 0.07347241070801674
-0.15060333954128344 -0.9885049077923099 -0.013292155187541886 0.8891265977212026 -0.06174963067278226 0.45347643415782224
0.9955675437608217 0.0037154889536425185 -0.09397585302555085 0.09642072456592768 -0.8902547885395071 -0.44513981551492215
-0.03151955216108856 -0.9993279769948947 0.01871128608234764 -0.9837461467941492 0.025487466698628922 -0.17774675161293582
-0.12237410796624143 -0.9923627675662818 -0.015515000730147555 -0.982890680727779 -0.17633065364207953 0.05322978794472333
-0.5928040523472966 -0.8053239786226228 -0.006053509399765093 -0.9760323008879467 -0.20818119022032705 -0.06341561055314918
0.6319357939711041 0.7710549488398847 -0.07830337264532684 -0.997613574874129 -0.037816276802781594 0.05776750328373127
0.797656740811514 -0.6030473573612499 -0.00880957533403008 -0.7283041498193749 -0.6810021254028022 0.07621791490682031
0.0 0.0 0.0 0.0 0.0 0.0
0.1359314816395273 -0.984409511898469 0.11162681211564159 -0.9767227391120127 0.009529171403619953 -0.2142939238380027
-0.07813992186622878 0.9939744605792347 -0.07686952794806978 -0.94348254332976 -0.31486993381110956 -0.10342927638630571
-0.02600854240972538 0.997969055304059 -0.05814912189573659 -0.9804485311954315 -0.1696362462715338 -0.09972071814635361
0.12203406007108603 0.9914147794371412 -0.04695128641657393 -0.9839804866396383 0.1056550561965078 -0.1435946064883123
0.9863607910278868 -0.16438794977263355 0.008306135827911853 -0.05309602464381852 0.9392319671499838 0.33915206626319516
0.9994130284651827 -0.020983935445010697 0.02707901377989036 -0.020820759255645794 0.9365152588161165 0.3500080941758356
-0.7911630768781519 -0.4491085439198189 -0.4151656314808774 -0.6326531410008774 0.760874184197934 -0.14429303171966434
-0.9770791651073073 -0.21092504402402262 0.028756406532654353 0.07428857353879215 -0.9809159039193899 -0.17968082056685336
0.10688486087517247 0.9910744104183968 0.07966893704275198 0.849179651941678 0.012339720163284532 0.5279598943428394
-0.99414834092515 -0.10348545712674886 0.030981226558022316 -0.09259436501388126 0.9847750425554638 0.1471203559252104
0.9748791309080951 -0.2221754868184102 -0.015771276957794067 0.17116242677863172 0.9530389342034173 0.24984037614377635
-0.9972859935528567 0.008601338371400225 0.07312088649293144 -0.11627279439128456 -0.9870797525378274 -0.1102460857096684
0.03774879488127514 0.9977241153930857 0.055871442151570166 0.875536674115588 0.0584335148806055 0.4796051048699468
-0.9927249638680813 0.099444026451239 0.0678824846059868 0.11961392525792486 -0.9695089306924384 -0.2138806727874129
-0.743266118657402 0.6689628507730365 0.006646889616434996 -0.9380256478339017 0.3448314775801257 0.034628544232992144
0.46139745776112107 0.8851360494475691 -0.06038675301690767 -0.8372755926880882 0.5466332197262924 -0.012716327318753634
0.9647218327154092 -0.26263262588504144 -0.018327283021488873 -0.08225493533164434 -0.9313978796871953 -0.354587246425733
0.9624266921450301 -0.23098253749118133 0.1427652955760274 -0.2791254814508102 -0.9245800841947885 -0.25930798968641744
0.8747097639935476 0.41976301692273016 0.24224334541588538 -0.07294386057037217 0.9798417426270604 0.18598212981535545
0.3428924100135029 0.897397679532898 0.2776728289266023 0.9084102189706968 0.01346845937622577 0.4178629855247308
-0.03656665186113865 0.9922160895159171 0.11903827820246562 0.9037572438443061 0.05090856799027869 0.42500724923714267
0.04208531254355377 -0.996806399726889 0.06786625031360424 -0.9725621738934369 -0.19591628941905234 -0.12545766398248576
-0.08800281909856844 -0.9946247967613825 0.054562051813352754 -0.9904222664572115 -0.09720425515909713 -0.09805644744087673
0.98774937309016 0.15389957764758003 -0.02580883491931186 -0.12038324003536283 0.898853443548331 0.42139098535670594
-0.6361230674503463 -0.7676270609135575 0.0780777715535974 -0.7748403132438041 -0.6273570204181003 0.07775382887271223
-0.9895840232699884 -0.13996757827178724 0.033653200761802 0.017731700729047187 -0.9852434513787653 -0.17023785802374883
0.791985389988585 0.6065721911333892 -0.0694933017510896 -0.7624864980724186 0.6468085769422541 0.015906132502770287
0.5313538701752498 -0.8401329029613678 -0.10881070724652368 0.928017501001181 -0.372315748750534 0.012825796967531954
-0.8393160621600685 -0.5431319095725197 0.023585516831824013 -0.21458826293988123 0.9766418660234338 0.011069911413808042
0.26724979337823324 0.9635536339041849 -0.01191396362809573 0.9503127163713133 -0.306848366205935 -0.052438738159151226
0.9926447811241335 -0.11181318663492829 -0.04641281936668061 -0.27159278827010475 -0.9601239626516791 0.06632747320460113
0.9839555924034152 0.1673265909193854 -0.061912875473046663 -0.147238007134704 -0.987159886803898 0.06193809119044918
0.7172052819984788 0.6925781975911942 -0.07714935965265791 -0.6317708296564993 0.7750895654024813 -0.010088825468353246
0.9437913151475715 0.3242282233223778 -0.06429628802062937 -0.21303123033686414 -0.9747614359225059 0.06676704231472742
0.6628970711859404 0.7449782634675424 -0.0746649849259156 -0.9548358413038437 0.29579237722217366 0.02820258390354166
0.9902036376792304 -0.1337357008751437 -0.04014371978596155 -0.039470235158483115 -0.9974452242580961 0.05954095347951895
-0.7817926787786794 0.6235353990045639 0.0019528431262969 0.162144412085729 -0.9855958918292959 0.04806170657174233
0.0 0.0 0.0 0.0 0.0 0.0
-0.9987766604467568 -0.03198755885631605 0.03770913185473268 0.015280114701665034 0.9836864620375559 0.17924135264703878
0.9975955030539365 0.06908978031516445 -0.005460269459091378 -0.22825886869627382 0.9588218984390761 0.16899247301339573
0.995781937229962 -0.029564232597347258 -0.08685787032545747 0.031250153805917814 0.8694983176387052 0.4929463495255523
0.8289712537478252 -0.5589712362055541 0.018916066044328207 0.0665532646209267 0.9871884675851207 0.14501583511892116
-0.7264917479010036 0.6851743776761982 0.05240050007184317 -0.9789899765267903 -0.19912715091119246 0.0438976494822438
-0.10632752659807732 0.9937492258979866 0.03401371950680275 -0.8898927971849837 -0.45508639117364585 0.03141951760980072
0.9984054437514028 -0.03136338712836057 -0.0469351449917957 0.13644385139727414 0.9905967649656564 0.010056075549372635
0.07049956198284825 -0.9958886462757941 0.05688247515002045 0.9688696892655749 0.058877305813396494 0.2404682683486198
-0.04414641697436589 -0.9987149408838008 0.024890976754473063 0.9468630460376656 -0.20820322491943802 0.2451566625270861
-0.517248173225804 -0.8558163707111924 -0.005715497991561406 -0.37427778956586716 -0.9272950492364643 -0.00632676056380418
-0.9999907286055145 0.0006769361601659018 0.004252582797260796 0.1242775793263983 -0.9922452469734124 -0.0021102453513152843
0.16507195691968932 -0.969581336567114 0.18072985591604188 0.7646791663113507 -0.4325834459966505 0.4776372419096321
-0.15960554370338517 0.9706683322614348 -0.17980283413770584 0.8752104196008292 0.0997275342465343 0.47335096950914396
-0.6754933321544129 -0.736274511068538 0.04010738791935095 -0.8268409354015182 0.5624020318842344 0.00616620441011063
0.0001360760714367132 0.9987582578175789 -0.04981891131385069 -0.9481997426655585 0.3066660078420833 -0.08290481073597723
-0.08557303326495216 -0.9955173136193054 0.04028069341554082 -0.9463725526991384 -0.3194131624072216 -0.048520337784626034
0.07404968274694261 0.9970368542124011 -0.020836406295628607 -0.9665152092404999 -0.2563670960142014 -0.011147304070388669
-0.13363335366419676 0.9909963677044226 -0.008265953369137009 -0.8887656083487401 -0.45793907275755574 -0.01968499576946622
-0.19427164091300653 -0.9809121227127191 -0.008362837568386525 -0.6693027753218845 -0.7422946715498568 -0.032131223679048394
-0.13711219705830727 -0.9903850756181666 0.01837518464240712 -0.9944439401802556 0.10283501573154655 -0.02249909727657375
-0.06017782326348301 -0.9977481971941797 0.029616964446636033 -0.992668235443642 -0.11936270354716885 0.019034687891235216
0.025106781342007115 -0.9971525555464659 0.07110858244823098 -0.8697447122761831 -0.12324216516026516 -0.4778655712585178
0.19391920377255487 0.9771297249965973 0.08725160706996932 -0.9437559843406256 -0.3231813702529121 -0.06984585845064246
-0.28674579744125184 0.9546926876251265 -0.07961607780400552 -0.939688194430151 -0.33706698118727163 -0.058068472012809236
-0.08258834403669803 -0.995650930870927 0.043109039482833095 -0.9987986044489944 0.038812405999415114 0.029915629548415635
-0.05318660009908636 0.9976471394726586 -0.04325934201905623 -0.7861029735795747 0.6180904096724076 -0.002521983415020394
0.16983261931450036 0.9849820328504895 -0.03110106716003845 -0.9677052791080898 0.09179049927733643 -0.2347786128009776
-0.010085423624568234 0.9971854615820945 -0.07429292994368986 -0.9695193407341521 -0.12062414622828141 -0.21326524163377622
-0.03644105507369273 0.9959961578266768 -0.08163150800771438 -0.9704193133498632 -0.09618931071614979 -0.22143615960707969
0.9839967980883996 0.17309664272037834 -0.04228301823085568 0.2757807644347239 -0.9587323763358331 -0.0691172954711449
-0.9721737150232541 0.2270427524308954 -0.05770490781976768 -0.24539221853893625 0.968401469776347 0.044511261671063534
0.32115974707405526 0.9324385612329287 0.16557399066639267 -0.5637016354797881 0.7499964795630842 -0.3460429840357875
0.15727154311047792 0.9838085923613522 0.08594367529739444 -0.9285528871829268 0.20807066824514261 -0.3074022327834829
-0.10868608893418696 -0.9922330513665253 -0.060505419989156914 -0.9658820605669107 0.04942209337931864 -0.25422293712610694
0.8892156337676138 0.3818225805980106 0.25200609835624266 -0.03081260442323685 -0.8465542104643713 -0.5314099661783754
-0.045587660148154414 -0.9967179416520905 0.06689626320682243 0.9218600093026649 -0.2576844595063507 0.2894353858418323
-0.1967834348463638 -0.980324344067267 0.015506779135261094 0.9463894657910724 -0.1199937807342607 0.2999141070786547
0.006063993759742302 -0.9968526884029063 0.07904394729250189 0.9592466104113897 0.005836249556314954 0.2825099619577618
-0.11518500590455309 -0.9920908555274095 0.049881347151625975 0.9729525179427535 -0.03221891363661511 0.22874732661373795
-0.14678998236957003 -0.9882444658890627 0.04272676813875191 0.9627569433597455 -0.14520744755893714 0.2280654844250182
0.42486778029451877 0.9039267508899618 0.049028545696619144 0.9406344991438436 -0.3389485969548414 0.017904961400545327
-0.0368636569338241 0.9992455024390814 0.012226882379939689 0.9944477994349508 -0.05152022234349525 0.09175642151185266
-0.9937305536324765 0.06553611065298484 -0.09057927454871535 0.08037946517797362 -0.9967640307537032 -0.0007801111034505566
-0.9588159670747176 0.2722401120804361 -0.08097692669523565 -0.05021148160884778 -0.998389815034272 -0.026392884466772362
0.8445591214935854 -0.5346436904077435 0.029597543971966202 0.4497593572925027 0.892859304774274 -0.022776795337251687
0.9882893534622428 -0.14657697679343332 -0.0424186716821665 -0.10025483355650543 0.9915443285171812 0.0823942530396979
-0.055599381486972035 -0.9981021918929571 0.026471178982824153 0.9997593250273898 0.016878466822403255 -0.014014613034364052
0.9260974933870503 -0.3766943481227805 0.02109030190812996 -0.533169930136611 -0.842717084629571 -0.0745502573540694
-0.049812492970320976 -0.9987498051555866 0.004188346423034219 -0.9745951622352196 0.21960253597056084 0.04403403164604086
0.1527001744151228 0.9771686653543685 0.14772967265635323 0.8678654767637928 0.06308171719861849 0.49277805470295477
-0.051260040204300486 0.9969692467767339 0.05852118641727477 -0.8349726498407551 -0.2286642367298859 -0.5005330567091911
-0.5722261499790917 0.8200667323349156 0.006912871880762272 0.6278917028257558 0.4661486588981069 0.6232635376227853
-0.1222259434295513 0.9482699154436608 0.2929931504612842 -0.5708390861860768 -0.5923069700164628 -0.5686081172056565
-0.9923643549416559 -0.08236939369081772 -0.09180560998238844 0.5424676496439205 -0.8330365454134377 -0.10853093151468916
-0.9964445891599361 0.061445854621990675 0.05764189174254689 -0.32198364346159125 0.9463947871684008 -0.02575733223135212
0.012758113224330138 0.9927228486048313 0.11974379484910398 0.9526483525727566 -0.29519692274384746 0.07293759759531375
0.6731591355957129 0.7180017259722572 0.17700367133167627 0.9369718824825255 -0.3484720895677484 0.025512628822595446
-0.857784613657135 -0.4988922929820936 -0.12374181417834683 0.04149126443866157 -0.9922612394712902 -0.1170303704949287
-0.9932602795753448 0.100824634632062 0.057170010225808934 0.10476571314550914 0.9220863493167918 0.372533098868737
0.9982148938980512 0.0009512653986933568 -0.05971700506760065 0.04047674740111075 0.9306689652703386 0.36361643252535214
0.9987626384682423 -0.003337949062098463 -0.049619049729049035 0.15026907266469058 0.9873673909135897 -0.05024779757346964
0.9989667397779463 7.876005210698717e-05 -0.04544718488834128 -0.043581731660938566 -0.9986940229214623 0.02666235635460072
0.20001655930719883 0.9765754287054197 0.07933352413535821 0.9987639633366819 -0.0042908111353875044 0.04951903149096847
-0.2709701107937184 0.9619523772051671 -0.03496888682483317 -0.9134756115973458 -0.40523841340587896 -0.036662451052012636
0.15643448543560057 0.9876494640421334 -0.008762873032606278 0.990753246538307 -0.12403982640195989 0.05497386597262501
-0.2751870348009551 0.9606932048957203 -0.03661505079400203 -0.8534310855123817 -0.5201791301335682 -0.032696404307542774
-0.19182691959793452 0.9624054096089556 -0.19229732310405695 0.7881078320946503 -0.3492058967707639 0.5068937626876042
-0.003604946983596136 0.9987959128317633 -0.048925748515583706 0.8763475986313373 0.06345408499882116 0.4774813770923963
0.022553508493255253 0.9990502838993027 -0.03728095352009501 0.8662074386197874 -0.03773615622444324 0.4982576199047554
0.04851211109890527 -0.9966655542418607 0.0656075305471275 -0.9468168559263396 -0.3044497386929344 -0.10415468277310094
-0.09116579774694422 -0.9945960143317508 0.04967459709508248 -0.9903006651961168 -0.07621731262234101 -0.11617019311663775
-0.21300447459627647 -0.9762944005737809 0.038449150969116594 -0.9901252583268639 0.07537544230298207 -0.11819693532740558
-0.7152081295239874 0.6985846876003851 -0.02137207788381535 0.6312305160941256 0.7747544885727643 -0.03610426550836215
0.09958663907307415 0.9950069838542888 0.006603287008796379 -0.6043553661091773 0.6915145790439381 -0.39567938842543643
0.03727631371996492 -0.9980620585608444 0.04982573327850448 -0.978698078848698 -0.2021674094976648 0.03575484575370452
-0.30638912596731976 0.9512001112200364 -0.036661313451268364 -0.7424011428633416 0.6699349926267363 0.005258205912563261
-0.9922181940740512 -0.12384439484182358 0.012869390610702061 0.1708776728062347 -0.8465386276168179 -0.50415590137274
0.9722951535174384 -0.22582602145091524 0.06037170266069552 0.3602388914162245 -0.9322102473349452 -0.03481373112623697
-0.9254425027047375 -0.3787262516653558 -0.01107251042453207 -0.7888842125040053 0.6140329522092952 -0.025004656827732456
-0.8778805559759945 0.4788439038236143 -0.005851940724234481 -0.38680354280170975 -0.9175999578985525 -0.09161515453581076
0.893197952251862 0.4450502647399827 0.06424702287228246 -0.35948340723567607 0.9321713644229623 -0.04275777440491827
0.20913827631603346 0.965313266114758 0.156305724918881 -0.5237533812230712 0.8047745997118742 -0.27932103271324377
-0.7987177511586245 0.5944537918622088 0.09313776529824631 0.8395918408135069 0.5432041350911879 -0.0038481760902186117
-0.005030311676375661 -0.9998549279222352 0.01627326255120233 -0.9784875355371866 -0.183733928146853 -0.09382956061972098
0.8374308429892473 0.5454149872072817 -0.03510092505902457 0.4850052417434973 -0.8744101209988067 0.013298713328150066
-0.9874171018339065 0.15733244160040183 0.015936430779343064 -0.1193328838971788 -0.9921702567888988 0.03684893979795168
0.14768268790858488 -0.9864523205611322 0.07142578632155851 0.9914525303075359 0.06110767947357883 0.11527242365864832
-0.2220808389658892 -0.9745658611295523 0.03002471123959468 0.9865032720984683 -0.09918955419438817 0.13027941693811027
0.14244202767760258 0.988886360890293 -0.042591477976777585 -0.9762661757404619 0.1700122778557123 -0.13416474754347885
0.05062628047450789 0.9972250228759981 -0.054582354981086725 -0.9876077483879492 -0.10776360746223805 -0.11409618850255165
0.09478081771410712 0.9942441133375665 -0.04995237418823707 -0.98446305539938 0.11578997862076988 -0.13200444464001554
0.22908363097303847 -0.9707582304494984 0.07175756430347574 0.9001211943361579 0.43222836989698266 0.05441021745082225
-0.45879617541486145 0.887675832277802 -0.03921334230344532 -0.9116865590831235 -0.41003402824468904 -0.026452101402500396
0.22312837564933685 0.9747533791476074 -0.008341332052428862 -0.9814985094954317 0.1860874275623171 -0.045079320774447165
0.12999298355374692 0.9912488251444883 -0.02296934645275809 0.8936157036302013 -0.4481956554371802 -0.02390875723948478
-0.15044249178761993 0.98850178329994 -0.015207928115636189 0.9213989570069111 0.3865305058762917 -0.04022598729172857
-0.11640144044470933 0.9896043927229475 -0.08446212503745824 -0.9670071511924373 -0.034934918891322796 -0.25234246766001006
0.576656061799945 -0.8160643593829168 -0.038816848588308375 -0.47986858981421293 -0.8706087497105502 -0.10847369006884137
0.9835697963861798 0.157009936010001 0.08909733795677821 -0.055940115081284665 0.9947641592830824 0.0855276033249776
-0.4978544958658781 0.8666297967331031 -0.033071080424939156 -0.9842406022706167 -0.1701398400710824 0.048196178920739054
-0.9394211771534942 -0.32017295124192535 -0.12238109824878698 -0.17501942306565815 -0.9797376978889009 -0.09737681903369609
0.1703614800685695 0.9816845351876242 0.08527859920463525 0.7617113833007174 -0.6475424377415904 -0.022012720726573867
0.07815705245634336 -0.9953924946160633 0.05554508811179366 -0.9905247955177757 -0.1299370408913963 -0.044463410450123045
-0.18656904165789706 -0.9814305214027669 0.04456595509968302 -0.9437271865687162 0.32422197750285414 -0.06526183138124482
0.07304200721062891 0.9966561762710294 0.0366241925979673 0.9790109335265001 0.20059914334133744 -0.036021878439252475
-0.9906172252611606 0.12752929843033795 0.04913034762490981 -0.5775111947818856 -0.816250103026297 -0.014716970175907212
0.05377773839139998 0.9977527212978022 0.03996826236323353 0.9809909558036822 -0.18758281310360078 -0.049693388488990846
0.7497442363963168 -0.6582579957144685 -0.06767563127503423 0.6739522350490926 0.7387434247238992 0.006821825235024952
-0.22965344445376668 -0.9725270769457827 -0.038083855605914395 -0.9914470172487412 0.11830441062265855 0.05510787979771609
-0.9881112171813986 -0.14871067654882408 0.03900457871437775 -0.5117585185402307 0.8562375329684225 0.07043085856112997
0.9974184127930651 0.036929036976935586 -0.0615853558024881 0.3760522806263346 -0.772709553479521 -0.5113752322876146
0.9972801808995321 0.02339923135027727 -0.06989074872408328 0.17253307776758858 -0.8322148095643143 -0.5269258466026082
-0.053737223731282764 -0.9980151856182502 0.032832911248072374 0.9921801555169063 -0.12447342386014693 0.009214431668849079
0.9630772393768127 0.26200116696522713 -0.06194852301061504 -0.7736116929959298 0.6332782241700383 0.021991799653825528
0.10500609705899826 0.9935146834422535 -0.04361528820350855 -0.9657157568120369 -0.06646824982552767 -0.2509482990778899
-0.14759574882457557 0.9861767478323593 -0.0753054909266519 0.9622213201958002 0.0067433246285179 0.2721849711751285
-0.698691971227907 -0.7134834225734947 -0.052639671868975904 0.30477582680092474 -0.9513427085460799 -0.04537340954811709
-0.9687925911638701 -0.23930386328962844 -0.06461096130420535 0.08146395882623159 -0.9646027505970821 -0.2508090049278563
-0.9997877879201257 -0.005297420169811768 0.019907698644648728 -0.07879103182564504 0.9666092220283964 0.24384131149891006
-0.9960168421380283 -0.05869599682191166 -0.06712101112522165 0.08679527604056808 -0.9946742475294768 -0.055585262063887086
-0.9984890889291564 0.01692088648736193 -0.052280234218153115 -0.14818495348188954 -0.9856095662441585 -0.08133266557522777
-0.8632774368809268 0.5038412793989822 -0.029933796048847612 -0.1299777569938952 -0.9914724363441269 0.009390988056503489
-0.6888416829745359 0.7243965720460127 -0.027326584213818846 -0.6779109774240725 -0.7351440039407353 1.2566737690912919e-05
-0.9587343296255898 0.28430003884891597 -0.0014046735834189752 0.14306876943694594 0.9891030939667528 0.03473322209635897
-0.9966741165571874 0.0812995573236067 -0.005575604356073434 0.3250776224154162 0.944667461268747 0.043908165810021375
-0.9688823195273081 0.24739746799636766 -0.007844981604149159 0.5198394366742675 0.8531077058767966 0.04443199581168187
0.994939416234734 -0.09743125524413423 -0.024550122688878354 0.10272826294087245 0.992407158231821 0.06763827528398796
0.08285376084976406 0.9958934828084159 -0.03648869979560289 0.8769639676080871 0.4783040176024416 -0.046470057697889464
-0.7964405804461507 0.6045883096450151 0.012465057528222839 -0.16774913278912706 0.9850081103090712 -0.0402399189095671
0.9280451478595404 0.37207206634674894 0.01716336152460069 -0.5250939401639028 0.8490318454189627 0.05849170426324172
0.5023614445901211 -0.86269886635184 -0.05816910678854163 -0.9233136036021791 -0.3837811888996742 -0.014282452517364987
0.10977124001362752 -0.9937748121747829 -0.019023605148490684 -0.71358332288683 -0.7005656487080427 0.002571604182079442
-0.6269507220379839 0.7785587498700044 0.02791173833544821 -0.825053753125775 -0.5649852214423636 0.008831987590349973
-0.006092877544294609 0.9985945378448965 -0.05264813225146563 -0.9795010816810013 0.04075130521837827 -0.19727382519925757
0.030434524149498564 0.997461557217118 -0.06437531835878645 0.976168282251829 -0.0314549006938759 0.2147232496676875
0.009478304588270705 0.9975089973387622 -0.06989965643942364 0.9723012281952867 0.09813733837129707 0.21213058352659686
-0.019210973674522465 0.9971546343279785 -0.07289426403162608 0.9735591426626468 -0.03882919716478036 0.2251108375567702
-0.03068305398424368 0.9991260922029054 -0.02838313015774196 0.9530712429144376 0.3016477004923686 -0.02576568875841245
0.0677569225059367 0.9973158159089806 -0.02775180697412091 0.9358409347364625 -0.3522895483917918 -0.009686019073455251
0.12777370163192067 -0.9914132224680262 0.027815526003315508 -0.9733464867253917 -0.19629400130772917 -0.11859714090119522
-0.9962685735119856 -0.03650593408674604 -0.07820643329578061 -0.03721205013600618 -0.9982576616418621 -0.045791967614381535
0.9973429233820258 0.07284295643601756 0.000998437506860388 -0.09581365794441545 -0.9873848385470496 -0.12605920656075553
-0.9079250131313612 -0.4146133325831079 -0.06138367026129048 -0.6303565091082275 0.7751024252434476 0.04320765911982153
-0.9223158372424456 0.3864324571681632 -0.0018580685514904738 0.4324438426786911 0.8960919405531496 0.10005776833898576
0.5676126814003783 -0.8219520618681718 0.047017570164077836 0.9202044298732409 0.387294487568029 0.05680481617857352
-0.6625973153375428 0.7473900112856873 -0.04871312695630369 0.6835081747497895 0.7291084323006579 0.03489224839829028
0.24235119283324458 -0.9699193867703059 -0.02285350081316696 -0.934162733913516 -0.3554988619810188 0.030992671672929066
0.6534540637153476 -0.7563445426516415 -0.03067114955422796 -0.758817422346689 -0.6512390582225083 0.009154703085686989
-0.979009329128011 0.1270552774927408 -0.15936652704242646 0.4856510079592718 0.6809779571277916 0.5480986410986647
0.9941019132815221 -0.09453335604453797 -0.05314913550542482 0.10662852162203001 -0.9504596130543201 -0.2919878119533972
0.9646501837262826 0.25734687650717697 0.056768020829064854 0.021307476966254655 0.9306253394912208 0.3653525269136405
-0.09011320458332359 -0.9939986283709485 -0.062018845171425384 -0.8765105036576972 0.004945048504952635 -0.4813573344959164
-0.11716160259705115 -0.9911001812616126 -0.06319485406336006 -0.8908047181326416 0.17244467465657337 -0.42039242183371184
0.25810072563070974 0.9656674017201922 -0.0295039774246502 0.8679410812576211 0.49542648820158564 -0.03508381754592508
-0.06714930599759787 -0.9974132903864404 0.025645640263701957 0.9987051289060181 -0.04660114232447365 -0.02040585775868483
0.24045678836709125 -0.97047744488959 0.01881653232549953 0.8664456878593515 -0.4991883606854689 -0.009102227534472046
0.0129030606378487 0.9995693049443255 0.026357458892955384 0.8903423381183049 -0.4519466353069783 -0.05508865390196943
0.13772773210524658 0.9898759387838468 0.03430302648372535 -0.9539920696389795 0.26750658409307876 -0.13542288777303912
0.08497917106709015 -0.9958008800457254 0.034046259484841204 -0.9987874243471238 0.030266892081008787 0.038827776266418784
0.30634902020144367 0.9508490197257455 -0.04512670504484465 -0.6163756587692871 0.7874514697239288 -0.0011091015966839864
0.9958928440532455 -0.08925148926232794 -0.015218897068923315 0.32720497280651367 -0.9439143459882761 -0.044301390590067276
-0.9962252487894835 -0.024890008709306435 0.08316093518463183 -0.04481589743388027 0.9354423490900529 0.3506267914265535
-0.987861368340778 0.0809194508629201 0.13259698115692195 -0.030192943436973634 -0.9262564681332617 -0.37568250080075266
0.2814111437982563 0.9363713263918639 0.209801113574973 0.960602659124678 0.1052257611214533 0.25723543783664093
0.7637731269452691 0.6451992583915432 -0.019197070798656304 -0.7277693386040044 0.6851220106585857 -0.03097773876555471
-0.4828712223079513 -0.8752211407700458 0.028693856764203166 0.8827819968626327 -0.4690859086463778 0.025580389454130114
0.13575570420346475 0.9882647603362412 0.0700225124782955 0.9912783789000449 -0.022673033970432292 0.12981952494087554
-0.08420885086817313 -0.995719219578477 0.03810649810059285 0.9797134704760256 0.20020586585961658 -0.008895338286023345
0.6957253008132304 -0.7178945516990332 -0.024366338444349142 -0.7657503152615354 -0.6337790624559204 -0.10931859251451062
0.9073155744438359 0.39859413890989254 0.13379521963931734 -0.37676161102156297 0.923708510079063 0.06937778367715496
0.0831633655958725 0.9946024280067004 0.06204727895680453 -0.9323340570232974 0.01700125173908893 -0.3611982330435502
0.9970190504478142 0.006049695826777723 -0.07691823076840881 0.2704517777082934 0.8448389515734436 0.46163078519386946
-0.19300680463753933 0.9789938574864847 -0.0657221451821154 0.9706105154246798 0.23246225973368842 0.062261747056635244
0.9960972331442958 -0.07155119161554116 -0.051679097328364954 0.27028731915117415 0.9626572607376745 -0.015354590685142923
0.9937854918633483 -0.097933781964596 -0.05290907778476087 0.008316959311785057 0.999951018193023 0.005365575695355247
-0.2064652785195326 -0.9772783028244708 -0.04795005312169997 -0.9988590711565255 -0.03809526610348257 -0.028797685129675416
0.45694366632379674 0.8889122644624181 0.03220981053751403 0.8196599099432859 -0.5699738347005536 -0.05733637404397321
-0.7325652588445403 0.67812060587374 0.0591657453554281 -0.6842087000165127 -0.7290681952597894 -0.017833156825066494
0.11199356308811086 0.9923990754351687 0.05100506741738267 0.9757670009184665 -0.21461674980012826 -0.04264282617053831
0.05012646353509387 0.9984673871946329 -0.023456648571097617 -0.9992171215093966 0.03433653001061348 -0.019650618038785733
-0.6397786277260473 0.7679109088312442 0.03156174271088939 0.5244321837562611 0.5655919102491433 0.636456342337292
-0.026902297767549255 0.8674904390874556 0.49672588463525796 0.43161337706593483 0.6266462588272129 0.648863898699563
-0.4068440045221767 -0.6433556517675943 -0.6485148119534763 0.1035920157572512 -0.8812943192704229 -0.4610737653489205
-0.09959510159077489 -0.9938009275084839 0.049401743110949574 0.9107456291645087 -0.16888982778878656 0.37685358566320815
0.07983434106920044 -0.9897284853472572 0.11859175046465395 0.903873377440366 -0.11824802756061585 0.41113297305442387
0.05554358509660595 -0.9919729969955005 0.1135979022094195 0.9233107889306684 -0.03910576128065125 0.3820574910650063
0.9991812834607032 0.012144858219674506 0.038590998958900266 -0.1161138075529676 -0.9184380983173982 -0.3781389205763849
-0.9874645212609926 0.15409757479811642 -0.03417245516695626 -0.055960918777986604 0.9968673193513492 0.055892067225848184
-0.9823700373928929 -0.17843697135807862 -0.055761607627852545 -0.16091290059563793 -0.9813274806146854 -0.10537273941742586
-0.6355510776598909 0.7719428141204974 -0.013383550092503043 -0.8660133189421809 0.49990763706900704 0.010643580921401198
0.9982723256230978 -0.048601099197938535 0.03301964645183266 -0.08009532727505883 -0.855519713808735 -0.5115376406808407
-0.982399595743705 -0.17619620756596727 0.0620155683838785 0.042662309501728904 -0.9226736674525199 -0.3832143404645699
-0.1518103393837112 -0.9883820824440364 -0.007381054111195042 -0.9669465830604066 -0.1354625937008959 -0.21601896031513163
0.0863252528786145 -0.9934138845660104 -0.07534457290948231 -0.8871506841242922 -0.46113996253625966 0.01770871564674144
0.0 0.0 0.0 0.0 0.0 0.0
0.02760956025803475 -0.9989112762776204 0.037602849729421635 -0.8333383637499391 -0.280666262754136 -0.4762075392664426
0.007935279992564387 0.9999672491193612 0.0015912322574003271 -0.8687114514735342 0.13313966654714834 -0.4770893451655149
0.9957422480142362 -0.002984011047033284 0.09213289964842405 -0.28414705228891085 -0.9564568913866927 -0.06671332396476183
0.1463212776242906 -0.9886906856229849 0.03287570344110402 0.9997289220728611 -0.021440427100985097 0.009076918902500288
0.08711371564758195 -0.9956860394234157 0.031945444798665484 0.9953714727413537 -0.09121953021661577 -0.030242826583642503
-0.998122627434761 -0.03122235544363358 0.052691414132481754 0.03462370917500656 0.9146102379771309 0.402851475546982
-0.971647413769224 -0.2316807782141799 -0.04717330094079032 -0.5545307849439729 0.8306248516543691 0.050576322163424295
0.9977713054129583 -0.06164334381178067 0.025544476080429833 0.10929796676362029 0.9897311487320057 0.0921206149076459
0.9900386974143505 -0.14074240723622344 0.003866836879069583 0.2669510936307438 0.9607100175598341 0.07598273336444947
0.16558520732546586 0.9845497464699378 0.056950292720615976 -0.9209390763706069 0.3857334094766205 0.05550634582815736
0.21260175377868532 0.9755427868837698 0.05582799700217642 -0.9990618516240264 -0.012504584364090928 0.04146145196990942
0.3936970849511779 0.9178561795555559 0.05042458678684406 -0.937353264724602 -0.34833447397736794 0.00565255243590804
-0.988955279395223 0.0707588123531228 0.130233044311695 -0.48070291149958455 0.7338316452608713 0.48001648647681394
0.9978933727218156 0.006099074087065404 -0.06458806370499268 -0.02667099941288535 0.8717778390080047 0.48917487384865915
0.4281166258754885 -0.899199919470086 -0.09030868991397094 0.8274965814476353 0.5613788153409212 -0.010160382812717045
-0.9368694495612574 -0.34910852000996945 -0.019971873603526497 -0.36324432968813264 0.9307273307749528 0.042428677777543555
0.12947920021743187 0.9912113478740303 -0.027114581995712213 -0.9389500892863348 -0.022858876722627645 -0.34329317147907795
0.10537020198060722 0.9939678992201657 -0.03041275808631564 -0.9400655453960725 0.1454103840193141 -0.3084357154717015
-0.026620677981559596 0.9982970595484775 -0.05190684348586378 -0.9402158955523436 -0.07086651103404396 -0.33312461236685303
-0.994258932219297 0.1030964492857616 0.028640842285309144 -0.3505353488606127 -0.9351679313022982 -0.050851838343845046
-0.9820028607554218 -0.18824518366662568 0.015301382110322281 0.14661860522594955 -0.9814336718589138 -0.12365650950567551
-0.9959059908119502 -0.0836026573111836 0.03437809121193702 0.1343056882886312 -0.9861118806161123 -0.09770026100820453
0.07974639808878103 -0.9967843585975414 0.007839288689257741 -0.9624342441033601 0.27128086453593564 -0.01127024018507319
0.9957847858538112 0.09151180479468073 0.006184645931607059 0.07445395983000869 0.9970961454448584 0.015996393488448852
0.11396907109540026 -0.9884247130678907 0.10013809180481398 0.9184351745332664 -0.043734944101333766 0.3931463911121428
0.9633877341030299 -0.2666003324112532 0.028431259874283892 0.9278136180217689 0.3729890156535815 0.0064097125619946025
0.998412932427539 -0.029600200138503858 0.04791079745947707 0.19531671925697974 0.9801934519275126 -0.0327440983555398
0.5867436506096254 -0.8084998578900666 0.04538577157030448 0.5501045561481284 0.8348591009529085 0.01988111820727951
0.9587292385126617 0.2708347732151045 0.08652613962528692 0.6805131312040388 -0.6130163756572364 -0.4013885915605233
0.987900400250681 -0.08852364117156725 -0.12734348879417293 0.5237053672290951 -0.7192097893317523 -0.45658511502765325
-0.8972947620210625 0.43894076130447407 0.04683073899709013 0.11626974575232878 -0.9931774555392678 0.008938010474068909
-0.39031162247989604 -0.9184698117254033 0.06379688320139913 0.1984798826216859 -0.9792208586098745 0.04162026258713594
0.6395048022804097 0.7656821497431633 0.0690250202823731 -0.8884304218732672 0.4589873703262466 0.004688216194414522
-0.07650488813743354 0.9961249755080392 -0.04338243031674187 -0.921265310719641 -0.14171571366573674 -0.3621972994996709
-0.9658516093745314 0.25861015187103414 0.015857427845278983 0.44438574703262995 0.8934033361965854 -0.06596807339207514
0.9993311578913242 0.007215475371180388 0.03584932053404831 0.7566772710523921 0.6537740911667599 -0.00435260746930098
0.7227536980552223 0.6900521146051464 0.03814670466064837 0.8196383656329308 -0.5707325620329013 0.049571082476969563
0.9526436892433647 0.3040069249258885 0.00705626968707813 -0.1888841816072556 0.981310032156816 0.03678840478936472
0.8460377776105465 -0.5327114435222589 -0.02094270269661256 -0.5139829687700669 -0.8573160907748807 -0.02882062304643989
-0.08300372606899188 -0.9952132279051223 0.051585002290694695 -0.8831338044266228 -0.01681856561559703 -0.4688196021174813
