0.9966298095056458 0.0814257851844113 0.009943053446603909 -0.07935785878059888 0.9222350657100112 0.3783976926787603
0.0263976574243263 -0.9430764640497257 -0.33152669068715196 0.9117145878694014 -0.00046458315285328414 0.4108239214415608
0.11196840653357051 -0.9927004499171288 0.044820672380757653 0.6288322125184829 -0.6942923979711361 0.3500401614366547
-0.8666406611085693 0.491163694481945 0.08770512947455537 0.3539039005584309 0.934356877104364 0.041584316482402225
-0.9928032931525783 0.10067260906456973 0.06485866857658924 -0.48265413545411023 -0.8743673470722113 -0.050266568442141786
-0.0033753528029396456 0.9948704981148547 0.10110044002948931 -0.9656967133420999 -0.08008623060409763 -0.24701427794338823
-0.1037868308290872 -0.9945747297687788 0.007028559725504217 -0.9918250103907963 0.09690805935065296 -0.08301793057037155
0.13645390750805406 0.9906430802311212 -0.0025726865296169074 -0.9845795285313141 -0.17153356813276707 -0.034342204365715445
-0.812898298671997 0.5824043229520398 0.0012492489539665283 -0.812898298671997 0.5824043229520398 0.0012492489539665283
-0.04741271531096644 -0.9974136292130447 0.05401931771972124 0.9894764944391552 -0.06638342021903981 0.1285671360512588
0.08725146855115638 0.9949109000544695 -0.05039327523064954 -0.9903750963812767 0.05146344026536661 -0.12848611903170606
-0.035722040783861986 -0.9980988586923321 0.05022553214551626 0.9945227030577284 -0.055661523031936166 0.0884668749109788
0.025864220510627638 0.9994145607420261 -0.022395934323008244 -0.9986296923213384 -0.0336158000822799 -0.04010879702779912
0.03959318116608785 -0.9990807421949646 0.016433215762837645 0.9901611234157951 0.1398033956285557 0.00599668630963057
0.015885476984501518 0.9996682885463838 -0.020272259265285072 0.9902534380391076 -0.13529798853598882 -0.03305423951390573
-0.9999472834046841 0.00880786297915272 0.00527749574447715 -0.009942227970272725 -0.9991206085460862 -0.04073280841638055
-0.022751877685711484 0.9985903766869396 -0.047954266233677295 -0.9641113762040403 -0.1443000894781086 -0.22286035639063578
0.9892971177782065 -0.13139107098649952 0.06346336912545784 0.6885249304253879 0.715295112889191 0.11952540173349908
0.05964242951430489 0.9962213631978469 -0.06313300333307863 -0.997685932283103 -0.050860013824913335 0.045122494591116516
-0.9984450336929279 -0.0035116652036134297 0.055634367988011586 0.0415870010241458 -0.9985172322549599 -0.035126318277211875
0.77137947394024 -0.6288945049757468 -0.09729033248472879 0.5612324606648074 0.5847184849441109 0.5857665221406811
-0.993651338645089 0.11073372270453682 -0.019876112920216894 -0.05568569596913966 -0.9984388885029157 -0.004346169519778461
-0.1749271370585983 0.9836247685561301 -0.0433913747579139 0.9937127408757903 0.10284152148132687 -0.04425618691810398
0.029494699091385836 -0.9992278308590771 -0.025957749559089104 0.9782178856074711 0.014469021734528976 0.2070758693998273
0.023614117288143353 0.9994658980361184 0.022589646468173807 -0.6679737472779348 0.6405971562960047 -0.3787431270570412
-0.9875192781247508 -0.1324801836611085 -0.08517438740073179 -0.13103842311790076 0.991182828969446 -0.01963494901699541
-0.9194581911667603 -0.37188536267536826 -0.1276632747667042 0.732782552034571 -0.680070459835924 0.02310629983913325
-0.0713800821205761 -0.9971881305356558 -0.022819206718542397 0.9011120924124162 -0.048999928059675846 0.43080854675628666
0.005186980055716605 0.999935656388759 0.01008852418757556 0.9970701443304961 -0.06488711958308235 -0.04050665373706549
-0.0325200504051301 -0.9964585001300882 -0.07754291611838465 0.9692640341116715 -0.24554836130481053 0.015272014866770527
-0.8632130339816431 -0.5032932085538393 -0.03948675965166561 -0.8632130339816431 -0.5032932085538393 -0.03948675965166561
0.053979690919509826 -0.9955322333711607 0.07747106096642153 -0.9623166542726351 -0.15124645097549513 -0.22598930943042184
-0.07237383362154526 -0.9960560575431424 0.05132600158333907 -0.9982634059129233 -0.03092184709706166 -0.05013992209044771
-0.23505530249022194 0.9706591417428819 0.05069354320031509 -0.9947937705707643 0.09082768462772804 0.04621348005471327
0.10422020933285847 -0.9929050321848996 -0.05725159411334136 0.9657664848975376 0.2571411838012038 -0.03425650656400702
0.1306336830416715 0.9904587076296179 0.04389065203019129 0.9976751896335232 0.054462835197307866 0.04096358836801661
0.9844276451452042 0.17440922938284675 0.02199163886456577 0.38865082688696007 -0.7666432111341788 -0.5110858260429038
0.0 0.0 0.0 0.0 0.0 0.0
0.30192462691583405 -0.9530796081961955 0.021926698390791477 0.9747785004347805 -0.223090528436421 0.006123006784162971
0.9951489766707311 0.0464989285389223 -0.08669696578271364 0.060921764125337306 -0.9228483929123842 -0.3803148463508708
0.02196800798634611 -0.9991698459177483 0.03430780718459193 -0.9984291229722999 0.013691498544884662 0.054330739626472314
0.2074213882057339 -0.9782516296936087 -0.0003416381200710061 -0.9979165338507314 -0.04444004646279144 0.04677257463222149
-0.9993618206512701 0.024859343955421567 0.02565081758316449 0.014553342634131019 0.9961546416555868 0.08639519735612126
0.0696537762404004 0.996195646671585 -0.05236969551214443 0.9373922024575339 -0.056842248729170985 0.34360561335814177
-0.15786697411172101 0.9872726333573764 -0.019255282610245304 0.8355375912631703 0.5464592510631736 0.057089583232099554
-0.007513925410588476 0.9980356858704795 -0.062195744661236646 0.9625323226901662 -0.11181586339508798 0.24703995723340974
-0.07262775870460068 -0.9970548101549594 0.024635628922438344 0.9845547721087751 0.04572489016687107 0.16900039981333104
0.9988101871769316 0.04453779894067791 -0.019864401755472706 0.04398606879632897 -0.886962096927224 -0.45974282415966655
-0.9829600757417635 -0.18134424932127066 -0.030062480533908097 -0.020930545720203555 0.9986119609064519 0.04833284380652173
0.34588305985859863 0.9376640481575704 -0.03392700540293075 -0.9722107570958767 0.22784103990159352 0.053802456483165534
-0.631511107061672 0.7752344575783526 -0.014326808470102002 -0.4048016206236952 0.9139980789245237 -0.027260954911926014
-0.9993553305807 -0.03431369930805423 0.010559037822467426 0.015842553753340864 0.9617304842231242 0.2735388257752952
-0.9915950615950029 -0.11518204388237635 -0.05892648460141485 0.006332862003964947 0.9840868252137623 0.17757537920425986
0.9947501164010872 0.08575075265255223 0.055848136401709506 0.023666828244698238 0.9989803040678307 0.03844780000702777
-0.9956487529369529 -0.06470803058276843 -0.06705543641786323 0.16299504263743067 -0.9848985844118885 -0.058372891817012315
-0.8218136839748207 0.5692298683756646 -0.024487257518089445 -0.7945151954919538 -0.6072057394172159 -0.0068406250572871875
-0.9999597752241102 -0.0013732556214759986 -0.00886352654112523 -0.11480292824005942 0.9925248426593588 0.041409230511117764
0.28000205224744634 0.9581845183916743 0.05900236818749957 -0.9158219181046766 -0.4010348521552095 0.021006229455090918
0.999064912858765 -0.04152014121200521 -0.012057270347944828 0.12853635502630986 0.9893265016262376 0.06864021136724695
-0.14513769498037732 -0.9885423652590186 0.041461326364309714 0.9880279663322655 -0.15157142140253738 -0.028754859751737707
0.9981800019552883 0.06010713058975202 -0.004880220159685726 -0.00029620430905338537 -0.9022962672401109 -0.43111640932301537
0.049711333793745247 0.9981086220917664 0.03616575449955706 -0.9320337611557915 -0.05949664117907211 -0.35745379806934197
0.9975359264638182 -0.051516067651562435 -0.04762531036845367 -0.14334097802044216 0.9889378754203537 -0.038147641856608544
-0.252798949374628 0.9651542711610914 0.06760121341060844 0.7060215456651499 0.7069747739640057 0.041475848817544604
-0.32746545705683705 0.9445834834887852 0.022987325959079475 -0.8095857689246246 -0.5869347486700794 0.008859094666784811
-0.005884583404943392 -0.9984512658195167 0.055321256868903046 0.9999904441122678 0.0018463853773886699 -0.003962643711933677
0.16143993023747624 -0.9839442384485053 -0.07609786165793195 -0.974180070411122 -0.2205852267002115 0.04811806495898971
-0.995222807990229 -0.08581312060466852 -0.046558251557938496 0.10716190549734367 -0.9902308426801143 -0.08921437224578387
0.9935375817245247 0.11124637462859475 -0.022523717121692217 0.12623727986513483 0.9900163491273277 0.06270388849863288
-0.12848114169794533 0.9883586950028733 -0.08148426989431598 -0.9838773384590788 -0.0025378867896734274 -0.17882656960676194
0.02298270633180674 0.9976459688959022 -0.06460894640390284 0.9755570117886901 0.03815180002572364 0.216409234795372
-0.048907288629283015 0.9985044384965417 -0.02443283490792458 0.9965037377133689 -0.0815076730079069 -0.01835211061762689
-0.02853765570010704 0.9983471376285118 -0.04988581958933125 0.9888274721089598 0.14546615058853593 -0.03255502166421462
-0.04222601888160147 0.9793899316837631 0.19751537926420915 -0.8025058330325825 -0.3049492303840964 -0.5128258523483663
-0.9974595695557779 0.04606281062033737 0.054338058295794515 -0.06344830575764135 -0.9973613745619094 0.035278903447577774
-0.051014736993621336 -0.9983821874328254 0.025109847198227224 -0.8680984361056113 0.025356871494705436 -0.4957440209412443
-0.9912996743963755 0.1015195857039391 -0.08377785662178519 -0.039598999030890064 -0.9975120779976502 0.05832301024948393
-0.0038320132488563075 -0.9998960910648014 0.013896861076912721 -0.989796215759492 0.05470848362855106 -0.13156911904871077
-0.9962515503873978 0.08574587191684274 0.01142338828573836 -0.14312449523649204 -0.9836020029638258 -0.1097382277460746
-0.9992993473209119 -0.022845227823082286 -0.02964641647334851 0.1423136348463277 0.9860538027320677 0.08628283406596374
-0.6077285514021459 0.7928412356727356 -0.04548387436860521 -0.6077285514021459 0.7928412356727356 -0.04548387436860521
0.41756221501313584 0.9086437401419819 0.002889652940145117 0.41756221501313584 0.9086437401419819 0.002889652940145117
-0.9844320030328232 -0.1757657007665307 0.00022324612921205202 0.35558211970976034 -0.9330335362219775 0.05486142932722024
-0.47663469174072526 -0.876544615206526 0.06699931478505582 -0.9096160976525187 0.41382486766084536 0.03670877002689148
0.06993950041439541 -0.9951832617270306 -0.06869309907212898 0.6273165001438442 -0.7748739910479299 -0.07774513904245767
-0.4296978917633206 0.9005987921423353 0.06543345784783436 -0.9715396459503138 0.22900944103405704 0.06054248313380772
0.9896540233341283 0.10883329279628809 0.09348918909526373 -0.08951396396455621 0.9224921185600276 0.37549373024057836
-0.9992715647734487 0.0352370100817096 0.014652404434928653 -0.0531151237845052 -0.9884540189899834 -0.14190643384958332
0.07955642020114052 -0.9968296447452047 0.0011980659114562504 0.9881839835499239 -0.009143071421240422 0.1529994081700645
0.41068654320452486 -0.9084158547114296 -0.07821251907220983 -0.8558924497734859 0.51325678996971 0.06336861976348922
0.9873561917170265 -0.15748205659934403 -0.018087358217593205 -0.025997276364499684 -0.997695362015747 -0.06267460597319456
-0.005513154567227526 0.9976434053542486 0.06839035662939874 -0.9760883558031612 -0.21325014353480948 -0.04214140419901189
-0.9762270952904715 0.02448829993380757 -0.21536244237814664 0.4891242792916867 0.6811392649565157 0.5447997257175206
0.9999478905040827 0.009275959576440094 -0.004262962628396339 -0.10286336624997318 0.9308381442759035 0.3506557814220609
-0.2203084836909671 -0.973223192159195 0.06558041062126355 -0.998382908504254 0.048456876343447135 0.029723713456132627
-0.06419811972633113 -0.9969337088362635 -0.04474127411658788 -0.8805821300816634 0.009206653534808434 -0.47380412589120674
0.9989525776348873 0.04561841695189628 -0.003564782099587752 -0.07413509695183852 0.9961920293575102 0.04588494354913389
0.03366429169806154 0.9993984963532132 -0.008328322244252492 0.9764055274884057 0.12106729552128304 0.17881542395791966
0.05096297364092366 -0.9986944769084337 0.003480963984926847 0.9965975537403675 -0.058280654971856985 0.05828105296549321
-0.09287045328753807 -0.9952977137586345 0.027523442608121864 0.9990416480200518 0.03501110664733467 -0.02626800206920653
0.08249435693202685 0.9962428742622585 0.026359373210396705 0.9988089979803889 0.012363190557578828 -0.047198909655292644
-0.05368122761864301 -0.9985254446959236 -0.0080784959097279 -0.9867920181842786 0.020914487140762106 -0.16063653717457052
0.05993346957043074 -0.9947813072518785 0.082571968412373 -0.7083896168086881 0.5612721044182675 -0.42796936292161064
0.9842163759533079 -0.17516802530263365 0.025185079251665868 -0.06799745781230113 0.9964272201552083 0.05009132324892351
0.9947231431467362 -0.08741457869491101 -0.05370809920178687 0.16694445089605592 0.9856044534636476 0.02670976652160704
-0.07808449936823578 -0.9962350490781335 0.037663482933750866 -0.9985748373999617 0.03845281762956281 0.037009119524620514
-0.9998190530644784 -0.0011046668842753231 0.01899054607757717 0.024596832013188723 -0.9988073501435254 -0.042176689701583996
-0.9946768934898551 -0.0772403609706217 0.06820413619788523 -0.027800264224558106 0.9260863349461144 0.3762861219007655
-0.01773434235155902 0.9970673562950382 -0.07444581997789451 -0.976800744515915 0.12352629962097283 -0.1749330123650299
-0.49734220765728143 0.8660348953284853 0.05132532080719171 0.5348139564792832 0.7983086346842198 0.27690676362919037
0.9815049573273262 0.19143149165406345 0.0014151837279905504 -0.3902084669179353 0.9199050458761752 -0.03888520177531352
-0.997438771072239 -0.012431838935922408 -0.07043683228661721 -0.053777696668245764 0.883953170424028 0.4644725522981607
-0.24350825890817712 0.9698714916623826 -0.007281311976095166 0.9677994022288824 0.2438083160411518 -0.0626244526889918
-0.038151934449402146 0.9980279729125531 0.049845713775898096 -0.9882726232038015 0.08232619452482809 -0.12860645365197393
-0.03952216888415246 0.9990293513900302 0.019451304015618363 0.99257893718222 0.04919433607294133 0.11120688270317149
0.11297110351849558 0.9927085420051598 -0.04203903423965818 0.9683814868113718 0.24859713678971493 -0.020898793767889445
0.9074020540050384 0.40483570814030223 0.11282535974672205 -0.3421645116364682 0.9375384011616666 0.0628107739468543
0.13296016863759055 -0.9910616332557486 0.010882676339559 -0.9846282350624884 -0.1651912840492174 0.05673692265094832
0.07596520995170582 0.9949463514639619 -0.06565854541142041 -0.9905233554995247 -0.12209000907329305 0.06290875848755308
-0.5767564536083619 0.8150233779936361 0.05557775224806929 -0.9455898762656505 -0.3232826951039274 0.03671627636693309
-0.006909038963479447 0.9961511121034117 0.08737978619645012 -0.9340894840711409 -0.12958942481712862 -0.3326911731971193
0.882665131008688 0.4529544382589647 0.1254374081481322 0.2596272772808728 0.9538256057218929 0.1510310920340077
0.11177572075177776 -0.9936938744999633 0.008869725569148943 -0.9774530221222445 -0.20254169774354644 0.05968626491289923
-0.02243243799111859 0.9952356631157667 -0.09488287826733861 0.8942754767207423 0.06970448023966608 0.44205503862121864
0.013992162717424475 -0.9967008428322183 0.07994779096407052 0.8125851305346246 -0.2600932030343093 0.5215907700193522
0.9991351354649334 -0.03330027443358512 0.024901261054756603 -0.3439559821798076 0.9367806784342699 -0.06431362868749388
-0.9986267457933349 0.020999039990085837 0.047996488472688066 0.10979186263225098 -0.9937569180932393 0.01982257908466783
-0.05269168809921278 -0.996512439804688 -0.06470350314908356 -0.9249417846462523 0.08271743406029156 -0.3709993546057554
0.9955522408810649 0.08448515274963109 -0.04168926290499417 -0.06344028850912604 0.8481258161977503 0.5259828226214033
0.2564153727996616 0.9661901868551835 0.02697553366953371 -0.9981735999082644 -0.00032990200168437137 0.060409896629987844
-0.9919299680911122 -0.11096324421763364 0.061335934291922314 -0.04227782333849858 -0.9986034786215505 0.031680879702076496
-0.5875973465988361 -0.8091489335875659 0.002713216562002038 -0.9668346806294913 -0.24915526668428267 -0.056145822779202464
0.0032582473894567435 0.9979493045150519 0.0639262813080288 0.9941882684352876 -0.09529289220653198 -0.05008943601757536
0.01079623695255508 0.9999236879312963 0.006004963075659073 -0.9933925392039418 0.07722945898368765 -0.08489330785775688
0.9965521800067279 -0.06470718171572067 -0.05193007951319834 0.03162276039498488 0.9994971982350564 0.0023133839442889513
-0.9321242216165287 -0.35940558725830685 -0.044407874563999514 0.358955132037975 -0.9320093923267666 0.0500969639628101
0.005288317314099643 0.9269062283243165 0.3752557495809699 0.5866441878982722 0.5626381116032412 0.5824834351092872
-0.7347018061671376 0.6783515330466999 0.007242487689868786 -0.7347018061671376 0.6783515330466999 0.007242487689868786
-0.09034853830866112 0.9943514589559487 0.05569845327892421 -0.992129249972988 -0.12311652882513968 0.022844510896162462
0.0077513401783639345 0.9996149838242776 -0.02664208774530272 -0.9887292338159495 -0.14888893045083185 -0.01570313939736471
-0.12628935587800555 0.8876494144970565 0.4428651211542305 0.43147412520716233 0.6266791666541958 0.6489247270356683
-0.340402559057931 0.9394350943200068 -0.03984722508245127 0.9707631095195491 -0.23914661749863445 -0.020685273382238755
0.01969141143394977 0.9992473052287648 0.03342261672566303 0.9989905431841424 0.02609122983845356 -0.03656695713576731
0.9891768557262808 -0.004784306390151642 0.14665012276787887 -0.019066417236025732 -0.8790783161720707 -0.4762959014833729
0.7586866983513805 -0.6514453072096199 -0.0036749774482711414 -0.7382675992690256 -0.6733047946019346 0.04026916234038311
-0.00981208370040589 -0.9957730668921518 0.09132207983644694 0.9292465731366301 -0.010314275101017713 0.3693161545924715
0.16793129874717777 -0.9828325305755258 -0.07641528475111682 0.9981902509233923 0.016943081455285367 -0.0576988297307225
0.9953281395332348 0.07773888837066457 0.057258710151404636 0.13658502047340185 -0.9246552061035694 -0.35546769474573325
-0.08519217937663412 -0.9941987050168725 0.06565993843915187 -0.8670455652106168 0.49820835823599363 0.004518808736600451
-0.9991486740947306 -0.03692155834793978 -0.018404499012507874 0.04455116316732373 0.9621251282723281 0.2689431750526398
-0.9980703142123496 0.040153939401001724 -0.04736358346496265 -0.14688331087605594 0.9874814347406815 0.05749529570819617
0.038905550196536826 0.9983747525229567 -0.041643867359186175 0.9910389386189251 -0.13040890638598746 -0.028902236527392704
-0.9972996451163847 -0.0029372353761868025 -0.07338113176476767 0.04411438710866544 -0.8827379941817861 -0.4677900752238592
0.015487688586387853 0.9978778437315308 0.0632450827492664 -0.9985468784160537 -0.027847364757530402 0.04613735884959235
-0.9879063212290465 -0.13041473316441268 0.08386356687708421 0.08842542858705581 -0.9348275641321496 -0.3439162236911007
-0.033245553294298964 -0.9992346752055504 0.02061060535293037 -0.9633550075283207 0.11237739675050169 -0.24355379317450523
-0.0003180762392198517 -0.9968780849140921 -0.07895557387238963 -0.9955629465184294 0.07154079848623658 0.06112555661500888
-0.03899236886555731 -0.9983849357172182 0.04131725188317845 -0.8801362431731123 0.4732574539823085 0.037250177225127926
0.030417247228153747 0.9987047322867436 -0.040787850876516714 -0.9207843584509229 0.3882030106918977 0.0381390576950785
0.0 0.0 0.0 0.0 0.0 0.0
0.5993033549410766 0.7305824025237818 0.3272382035749326 -0.6278068176674422 0.6879305461215404 -0.3641567840960789
0.994380453608492 -0.05793772865943428 0.08860436264177629 -0.06127802830426163 -0.9969150118409228 -0.04904551369243695
0.9782739750769383 0.06393027674736534 0.19721295444815803 0.1280243789954644 -0.8853772767146797 -0.44689689667766025
-0.11990627778217591 -0.9919795716289953 0.03998767334039816 -0.9947963163662282 0.09435855004262139 -0.03842854379282947
-0.7420738969962267 -0.6427943244869275 -0.190109936100742 -0.8474558541541662 0.5304623386570969 0.020694987950609794
-0.1838181290199235 0.98133330202073 0.05653181218310231 -0.9409714712081142 0.0037997323663326054 -0.33846455118133306
0.13432684611819665 0.9905477146535394 -0.027776310168714822 0.9959365481540219 0.08987049341323308 0.005804004196545919
-0.03181341918955448 -0.998887687066473 0.03480366340576051 0.9990866138870141 -0.03962174061122909 -0.016001738115496728
0.3501502345695095 -0.934731419500768 -0.06059691930285583 -0.9127636834843356 -0.40682112326651676 0.03686504816594498
-0.9989082723391799 -0.013467568945504813 0.04473128702656453 0.009813103374950661 0.9005020304946829 0.4347410678520096
0.024247408228299787 0.9942388512969567 0.1044086671015296 -0.9468879275556341 0.00036736218905879253 -0.3215635515639459
0.018572054912488603 0.9992386358887193 0.03431074647364704 0.9930258915507836 0.1169304661207614 -0.01506136788451531
0.9976718972531241 -0.06309780938577182 0.025873768223218935 -0.033070078337025105 0.9959685753382921 0.0833844521322508
-0.06545265417385136 0.9958794941617224 0.06276928524198788 0.9369539585642522 0.3486737777878793 0.02332115378590606
-0.016075943162874765 -0.9992633896594867 0.03484597735258852 -0.9293503541610599 -0.002056294881813289 -0.3691932974365477
0.14920807509380066 0.9868167564200889 0.06268683733717538 0.9994416209592687 -0.01051899827785986 -0.03171430228682402
0.06056987325941939 0.9979313907439991 -0.021545993156174247 -0.9732104755079479 0.05482744667033671 -0.22328305231970746
-0.9965705522943329 0.02292692657240524 -0.07950780048342285 0.08411794262259585 -0.8910575880566393 -0.44602751764395243
0.11317647045056094 -0.9906373180183522 -0.07634651718159255 -0.9896315178750811 -0.13958375211291246 0.03385018425864557
-0.6778990177228864 -0.7324221453233173 0.06333026772669785 0.5736510140990683 -0.8190996462729846 -0.000532445849093764
-0.9803727202441676 -0.040724921532623214 -0.19290103723726545 -0.029432352371990284 0.9242661850449015 0.3806123432265368
0.9969208347648463 0.04972834227548002 -0.060629540541676574 -0.47519514923703077 0.736145281561695 0.48195403782523566
0.00042105695197495823 0.9998825089119385 -0.015322894080765391 -0.9796960132499243 -0.017843366282562088 -0.19969310429233833
0.9547808042019456 -0.2151715334581532 0.20517023935442666 -0.01560151239597562 -0.9118991589283355 -0.4101176864715204
0.016582874696065293 -0.9988916796156985 0.044050206144164404 -0.9890255990631134 -0.07620631550715477 -0.1265739383707154
-0.9703584746630886 -0.24164943545060666 -0.0031592714234934607 -0.26292646527592706 -0.9642814095175266 0.032109766682407295
0.9021433173095097 -0.4296266197090835 0.03947660916466689 -0.47821873639050927 -0.8780664016541042 -0.017499555745159844
0.09690872940082676 -0.9923392598451211 -0.07662565846995699 0.9949403684858411 0.08428197672229853 -0.05468282689327996
0.9978160828954403 0.06565925509456572 0.007206034667307849 -0.02920671849123773 0.9985114603958555 0.046063337407419136
0.10749623857934222 0.9937228487898806 -0.030975126863619036 -0.9530907007869194 -0.01377734149313718 -0.3023711311201521
-0.8381723018508052 0.5418382744694382 0.062277417497069394 -0.9816405706383745 0.18149135062934094 0.058674353200559706
0.9906439477542476 -0.131527232443113 -0.03640269088590503 0.005373527817043267 -0.999660438661635 -0.02549769741813699
-0.09178805061605597 0.9938004971053639 0.06273376855598592 -0.9999160180561834 -0.008930200369141795 0.00939193036778437
-0.997330709176943 -0.056859921455377015 0.04580836020536345 0.13146701298338256 0.9909704554653511 0.02634351707767792
-0.9968131078157586 -0.07104987652510839 0.03627041676705208 -0.005995360425643817 0.9955840061971257 0.0936832015777001
0.9904303789434921 0.13712750623262315 -0.015611261969245683 -0.06361686853545671 0.9939207170110341 0.08985823464777275
-0.07590980724839826 0.9808471909649696 0.17937806203557732 0.7513357695705732 0.4054530059572493 0.5206749670610497
-0.9003355958696423 0.4351445327285934 -0.006711962937176585 -0.3434591862181913 0.9391588322485022 0.0040589668596239
0.990936956768328 -0.10214148283226647 -0.08724141903677568 0.4963445999194216 -0.7537576447378346 -0.43068718477579726
-0.4777432609799252 -0.8782618652963662 -0.020432145125136397 0.9436365611644796 -0.32734201482753095 -0.04896167646565899
0.9997519223136792 -0.0025872520486628497 0.022122385878101294 -0.08500012801320424 0.9767276134009633 0.19692167848613612
0.9948423834696785 0.10062715943038039 0.012759578258786673 -0.20883699336894654 0.8230486213389219 0.5281837531699726
-0.015610872370509288 -0.99826795712611 0.056722010182067295 -0.9324749406680218 0.0502799606664182 -0.3577183397333055
0.9731858999656812 -0.22364175201603773 0.05379192191383515 0.2517989193923432 0.9673164818282076 -0.02993540005323406
0.6988719455838848 -0.7134266542668127 0.050994241414668004 0.6920213111405131 0.7210532672361212 0.03447739455759472
-0.05313941132418945 -0.9985626427034592 0.006989389186649569 -0.9982957223094369 -0.030183641046360676 0.04994595711230693
-0.015155461856636998 -0.9993601786678035 0.032396686080028485 0.8650194357519425 -0.0895425228431772 0.49368361566317953
-0.11092699790825479 -0.9922610234945999 -0.05579661628191464 0.9275712924240261 -0.36780720416527174 -0.06579785737353341
0.9985035122930047 -0.04612386477355396 -0.0293823933144395 0.009406797399420812 -0.9999422494380177 -0.005197109920274881
-0.06408475000379495 0.9961045385187863 -0.06057138894913012 -0.9980307511121492 -0.049258291101008427 -0.03883607333816721
0.9884637641798077 0.14753565850992592 0.03424348655624687 0.2500480181518336 -0.9670746372692592 0.04735646279940093
0.9987594860362314 -0.0005491985084632036 -0.04979143936100954 0.17704458342519505 -0.9841546574046314 -0.009737853386243818
0.8837974646884035 0.46541121531905494 0.047900334712717735 -0.9997766802588828 0.006595270935434066 -0.020077151486602114
0.9294803538680713 -0.36735842356280674 -0.033377543509591545 -0.6947641143334181 -0.7145482475781163 0.08199772751451134
-0.9850018104401471 0.17119944943111542 -0.02149841724674822 0.05031566617034644 -0.9962493227295096 -0.07039616963178731
0.5092530340432423 0.8580077089515755 -0.06696356246064497 -0.8189308351777556 0.5738583898554684 0.006231820564890434
0.9995938922426956 0.0027596258437094 0.02836256434635443 -0.6048253791077027 -0.7933777028120632 -0.06883372333295083
0.9204557983493276 -0.3902786876815219 -0.02106345714005794 0.13725011084823563 -0.9892979143887727 0.04951811444483491
0.00046839726919211956 0.9992447588527386 -0.03885476173302822 -0.9332522358703842 -0.09058514204476768 -0.3476127101871538
-0.9610202454270049 0.1884897634295095 0.202266400970865 -0.2933551193501534 0.7932682932060588 0.5335430525693343
0.22676815701089625 -0.9729653615282493 -0.04375623649360637 -0.591776563980061 -0.8051921422429106 -0.03828984714288607
0.9934199857674136 0.10849213464080945 -0.03669044288302218 0.2856682623493463 0.95620472339071 -0.06376653394689645
-0.9682705473541026 -0.24779893813977863 -0.03237025460797407 0.34458837319756763 -0.9365416836964421 0.06440906579113656
0.9904218902259316 0.1344781715325026 0.03130656069528617 0.10930817708808935 0.9925596696356885 -0.0536379029639646
-0.9349809368905362 -0.35085269137197295 -0.05208681799014241 -0.276269382981162 -0.9609754558655347 -0.014191590863463393
0.057454630356231016 0.997890365991671 0.0302288423800461 -0.98971866757756 -0.1430176721775899 0.0017042574344476352
-0.044323248920047104 -0.997471866409825 0.05554570483909262 -0.8658775790623043 0.08728082991808005 -0.49258306386437406
-0.10613658378458675 -0.9934767436406526 -0.04170114420135651 -0.9636593636257488 -0.003988201556408158 -0.26710433381875753
0.9992721202723039 0.03415243859923259 0.016995310653818846 -0.12952882696981016 -0.955022522568558 -0.26674756675668687
0.5885133506694112 0.80848671809858 0.0011237179583375207 0.9448655363459932 -0.32377266604907395 -0.04899366229496884
0.3524793356346408 0.9275634248009363 0.12403391037180067 -0.738616085237841 0.5079755367406836 -0.44317844340732643
0.9592463337079125 0.28192796991344643 0.019054948134569982 -0.5423933395259659 -0.8374630742349862 -0.06682113835274063
-0.012578758312757305 0.9993807621075194 0.032861332424339265 0.99688732490891 -0.06908159693428283 -0.03799203075602375
-0.03048615195164779 0.9969364250514154 0.0720302640900636 0.9992842264518031 0.0011583936001955991 0.037811279916030685
-0.16392292572848657 -0.98456783176806 0.061281800464364 -0.975502618231793 -0.21123374404895984 0.061440598938937704
0.9943030651264457 -0.09551074659873847 -0.04731925574548455 0.08721275235488651 0.9946876920725015 0.054683919630596205
0.022821089726745642 -0.9978921639201116 -0.06074888517924482 -0.9999346466157882 -0.008063037777970449 0.00810493177946726
0.0347859205086081 -0.9984456531151494 0.04354557968188655 0.9887631483579402 -0.10343742425488481 0.10792652923544221
-0.10949226023975289 0.9936649451726426 -0.02532630416462963 -0.995383993393198 -0.09101004551807895 0.030461078631708233
0.052584080437061184 -0.9966755177933319 0.06223203930438448 -0.8429784932709755 0.09354863949507077 -0.529750801727772
0.03565189154946911 -0.9988564920579562 -0.031853585396606224 -0.9705488579320087 0.06741646108929246 -0.23127891201116763
-0.9977454772345936 -0.04349910818814973 -0.05110567722620092 -0.03214518331785217 0.9989354851299462 -0.03308449391573951
0.11457582062146489 0.9928521318753316 0.0334219323128834 -0.9978439951927107 -0.0631550424113661 0.017855023827145582
0.0009389210682043096 0.9998441463901623 -0.01762955917075849 -0.9884361728952126 0.011193271100055949 -0.15122381688856446
0.04315707038510781 0.9977773009975534 -0.05077326944183029 -0.9955776486700774 0.09331662275866527 0.01082374175029454
0.0341904815885301 0.9989695035012548 0.02984865228449721 0.9998387540551325 -0.009085720815316846 -0.015489208073578422
-0.9857867276943663 -0.15992384880466967 -0.05146736912971907 0.2813321932181223 0.9584851439677488 -0.04645886193402627
-0.9883267659962125 -0.1375289229476537 -0.06554387056259478 0.18338573674859954 0.9826078989849248 0.02917856078707545
0.9765476827872913 0.214483461554702 -0.01874747882475546 0.03487113944540204 -0.9983568579729909 0.045470735336880785
0.0 0.0 0.0 0.0 0.0 0.0
-0.9992715511940543 0.030782344580571188 0.022556911055193123 -0.07308108099029721 -0.9973030359564258 -0.006768313924879949
0.9411246493548349 0.32952022796114894 -0.07550373329294062 0.2305665913766338 -0.9723777737566405 0.03633885035385969
0.23811633999164228 0.9712362330975806 -0.0008877766648559888 0.7794002523754204 -0.6261480638948009 0.02176806555308224
-0.9979923850956478 0.018893894501547975 0.06045014509217141 0.09602819156687953 -0.9953755561513865 -0.002467517115012237
0.060827383245516786 0.9975652026395897 0.03411298770464862 0.912759802147541 -0.11263471744155676 0.39266138594270067
0.9915999165123681 -0.1252515376997613 0.03227472504158918 -0.4364107041965394 -0.8993941795996178 0.02521521296780024
-0.9617614159375748 0.2689987579567234 -0.051523266894595 -0.3869196099381641 -0.9212185354539314 0.0406155805253663
0.9997180561516039 0.02372234610992974 0.0010288340483768576 0.15917048690104618 0.9860860001310898 -0.047949519759348073
-0.9767419228750552 0.21174512380887414 0.033752313128205466 0.49710518990224656 0.8646782457411651 -0.072235458842819
0.034201684923161786 0.9960925599222119 -0.0814239326981403 -0.8729961382633616 0.04418469526773806 -0.48572158206255855
0.9948953651006762 0.0818794169259236 -0.05898282449207561 0.13607755200754762 0.9905342612991449 -0.018021571301930335
-0.7624553356664737 -0.6449893159799555 -0.05148439943744016 -0.8326403813421424 0.5526048410839595 0.03657710990474291
0.09544517897834016 -0.9920822927221854 -0.08162684777010852 0.9891491235076871 0.11366292420197727 0.09308464495194571
-0.9941377717765322 0.09338486346217008 -0.05449181592995005 -0.02838809187701313 0.9981794117001811 -0.05321633487438458
-0.10448386769631685 0.9944194703470451 -0.014595834540059234 -0.9976056931014498 0.03383646365071133 0.06031562665835677
0.9923094860041297 0.11365491743561493 -0.04903512749982021 0.12714446758485912 0.991882379188478 -0.0019053130890048537
0.9921496672274455 0.12458993198562758 0.010788265304746233 0.6869018224522994 -0.6088590980333461 -0.39680786919330363
0.9696662226514399 0.2433247798581848 -0.023247971005107428 -0.02402075653560757 0.9994394479874366 -0.023319370961183597
-0.9987946591049587 0.033238383592121334 0.03611701537492269 0.0048206415954537086 -0.9993278049527605 -0.0363414317674082
-0.9816988114285944 0.18343658515288003 -0.05117091817756892 -0.32879368530272896 -0.9443926627757632 -0.004148614269067642
-0.048277712921326 0.9952915524584431 -0.08404753440731205 -0.9578650623788274 -0.0019786022803626145 -0.2872117814558127
-0.11858270793404338 -0.9928856450004799 -0.010781341800079254 -0.9604346566438232 0.1330463324117608 -0.24467109299882706
0.28316249489613476 -0.9556438314112662 0.0810177077544887 0.9252042566978239 0.37578811135326234 0.0527292969209266
-0.998320859626834 -0.028441825414001188 0.05046309345510498 -0.07676818826261438 -0.9956437699959215 -0.05291624078847988
-0.9964638644091183 -0.06811994217381419 0.04918780748399799 0.027346768881688577 0.9996255919280409 -0.0009111499577620596
0.9522846806950758 0.03479509527335654 0.3032213519170371 -0.01686456944406467 -0.877695283189489 -0.4789223070231632
0.10901029336703963 0.9926031690638223 0.05343879400294225 0.9851917690087535 0.16347421328676096 -0.05170454397514512
0.08591014175680917 0.9955358623100213 -0.039087010604128544 0.9985631134145183 -0.03866973221999969 -0.03709933069392626
0.029670391079585145 -0.9983854528464408 0.04843712871126552 0.9693151284258699 0.24317118043394664 -0.03599942792740535
-0.9545400944389143 -0.2932466555047697 -0.05347529470526898 -0.9859092242882931 -0.15525685840778738 -0.062276073901623666
-0.9638993025113016 -0.22456641741735944 -0.14306662359389982 -0.6242511787315199 0.6791193988450801 0.3861441543835735
0.11926535502541527 0.9908013306266024 -0.063941366260158 -0.9988444073041407 0.048058987619116256 -0.0004286096886833419
0.9493775577352006 -0.3105337612537483 0.04744508394286779 -0.06830664348984153 -0.8588168589350775 -0.5077083860485649
-0.9884020000547855 -0.005042763807177318 -0.1517763381455913 0.349444617075046 0.7683956631898998 0.5361497592914024
-0.05060321427815904 -0.9987134114236597 -0.003291891133493149 0.9246594708665907 -0.041134191819389404 0.3785668252767037
-0.030678546132770858 -0.9992529036425406 0.02350449678531733 -0.9618254754489195 0.17393571944310773 -0.2112773539196013
-0.9889478735687933 -0.14824273709292005 -0.002488827627885012 -0.0013375215022696934 0.8711613980003774 0.49099493853833076
-0.06779479138463278 -0.9972410510136751 0.030234953849061073 -0.9536176120649122 -0.061505332002580675 -0.29467022940037035
-0.08117706405599229 -0.9947941680188483 -0.061602333940660545 -0.9972343400495088 -0.015421088542647234 -0.07270392736421163
0.9829105130869281 -0.17660379690454983 -0.05194248917878502 0.07013084082017039 0.9974538311744673 -0.012942945616552234
-0.3451471518264244 0.9364349962251729 0.06295189775429762 -0.5826814731162582 0.8099209525281312 0.06715915085073669
-0.998407255267091 0.04394490101281231 0.03538076179236491 0.1502410935377905 -0.9886433500685899 0.003455456225182707
-0.9980684542494318 0.012904347757911423 -0.060768729138373244 -0.022725775211429725 -0.9900250530679062 -0.1390465153785923
0.043949745517502414 0.9989788734648495 0.010470446019482112 -0.9385572604059623 -0.07003995357812992 -0.33794182020286884
-0.2779416440103588 -0.9604555953109498 0.01653759234918732 -0.2779416440103588 -0.9604555953109498 0.01653759234918732
-0.05432577013183823 -0.9963413864898236 0.06597387564118476 0.9551023896708651 -0.027769514374440116 0.29497165849689794
-0.9986678317810517 -0.0451379249070237 -0.025002589882272937 0.11008904776527752 0.9818020710642894 0.15474202666375544
0.9986605885203036 -0.04126299598533022 -0.031215286296871623 0.04413141975237221 0.9920690776391975 0.11769181357576189
0.9977800984818902 0.04194580260292017 0.051724507899703884 -0.05996980042576201 0.998184822394014 0.005539257994116312
-0.019926132629541324 0.9971496321002833 -0.07277060148644855 0.9934116037437445 0.06432392999764967 0.09484628393848055
0.9981256164937972 -0.0025297680005668234 -0.06114616891302812 0.017613517665924058 -0.933198036831714 -0.35893061731881726
0.9929746003062184 -0.0845451076217094 0.08278627859699667 0.20262279027077476 0.9783257230634421 -0.042694079862187914
-0.9914648844941363 -0.071514413172642 0.10900950198767934 0.04102706746012012 0.8835859971565568 0.46646818258534617
-0.9692328079227884 -0.24575564663578392 0.013853742914270753 0.3233298841917301 -0.9452699194903408 0.04384706712297807
0.9770132550781466 0.20220465018944608 -0.06751576736858059 0.15191296082045475 -0.9874869109841697 0.04233264661824758
-0.9997601647042162 0.016608960329585386 0.014274295337025556 -0.11127392897217298 0.977210223509258 0.18077137992525827
0.9996994115432285 0.013090129956939612 0.020730052046071604 -0.0340186744902051 0.9789948968085042 0.20102666939696254
0.9783302812248112 0.20652402823055854 -0.014754206247883499 -0.2542440922028238 0.9670003345513333 -0.016440637383374868
-0.8744124782707474 0.46929094581705416 -0.12316178798046216 -0.18757863420023366 -0.8783251087698506 -0.43972634591982873
-0.9994058969229398 0.029497561934467516 -0.017825460318786894 0.11086002556436331 -0.9938160941901489 -0.006294891619868572
0.04892615573024629 -0.9980475471862791 0.038824281589124696 0.9954804049998007 -0.08485423491560329 0.04264413298825997
-0.9941271775188045 0.10642766420715874 -0.019603754994990667 -0.2921883821710113 -0.9557923924271879 0.03296743700379482
0.10324482814268722 0.9946106573816829 -0.009494508126471072 -0.9377047218519334 0.027108113669615817 -0.3463740821566523
-0.5381024610622676 -0.8393375853646592 0.07718911317636831 -0.8499724105264346 0.5264639384814377 0.01956074698202676
0.2663844610914483 -0.9632487199567631 0.034514089741382405 -0.9815928299098301 0.18637171077485384 0.04172651066726745
-0.993505929137713 -0.11361611898600464 -0.006111159854546812 0.13217368621279754 0.9894531192758529 -0.05926754110139787
-0.008153623558424718 -0.9990843052359372 -0.04200082682629483 0.9113356923612995 -0.0083111853668307 0.4115801015915969
0.9936315586948071 0.10047076064128373 -0.05100933073360009 -0.15281338265128272 0.9881749530353717 -0.01258301538635998
0.07442220872768249 0.9957685753336896 -0.05390991769616635 0.9994559524917929 0.006025662628619079 0.03242669299526731
0.005895216796266397 -0.9993165184712791 0.036493044945120706 0.9915606321222917 0.008772780094916777 0.12934663178702235
-0.4566899926528624 -0.5981547962984091 -0.6585173424261029 0.42745888807445676 -0.8731074375927208 -0.2344404005849294
-0.9324261834198049 -0.0354188788055022 -0.3596205159572207 -0.039474304755472076 0.9250876547925645 0.3776964524779986
-0.024079554562726178 -0.9981459963366003 0.05589941904238638 0.971514596960942 -0.23279845724040654 -0.044320042850891174
-0.4210309702880189 0.9070237734811906 -0.006387205826575351 -0.4210309702880189 0.9070237734811906 -0.006387205826575351
-0.9975700768975618 -0.05110776189022338 0.04734911142951704 0.04560246517390599 -0.9982873740668408 -0.03664333430235566
-0.38015202107405877 0.9246184129846817 -0.023774592383404156 -0.9981602291711912 -0.014382390544943545 0.058900795776694326
0.35888456097917665 0.9318831460979794 -0.05287413270509243 0.35888456097917665 0.9318831460979794 -0.05287413270509243
0.039071386846830494 0.9984301180480183 0.040133852350422314 -0.9075535301200938 -0.0021863136800215756 -0.41993072047547153
0.056275390132512204 -0.9975779850928733 0.040880852773352405 -0.9988777458431075 0.035311218704425766 -0.03156527669767138
-0.06270734906165859 0.9979588442029161 -0.012080300113779896 -0.9711846915967045 -0.07097999593913253 -0.2275129336646483
-0.9939044935145279 -0.11011884244464197 0.005262918418699289 -0.07336955657280708 0.9972654772866957 -0.008858666967933864
-0.010421223690331553 -0.9978978678111765 0.06396282916431587 0.9414724487397399 -0.0014182642636300093 0.33708695731291066
0.6589920893759703 0.3487175125166141 0.6664274323616325 0.623798554536864 0.39057477793201967 0.6769983059070921
-0.08987277000807484 0.9958561400935513 -0.013908035412987898 0.951609631938142 -0.025157761726997175 0.306277970849099
0.9724518106847563 -0.22671922991847532 0.054183638500126474 0.09150060246773638 0.995512191619627 -0.02414779668475363
-0.0147420288270974 0.9993149979494633 -0.033944181523865406 0.9983010190275305 0.007927776038351729 0.05772543439143459
0.9965186394040025 -0.08060829131770506 0.021281557537822012 -0.11546842844649984 -0.9920433723078337 0.05016960725575143
0.014059327718509582 -0.9966898601999485 0.08007282859191606 -0.8913401908870408 0.012255427249822887 -0.4531693597457554
-0.9456758504754094 0.018391440263207156 -0.3245904199951932 -0.5298965821740224 -0.6154858324850127 -0.5834267753630444
0.9835168359612312 0.16245277131208932 0.07939603563044415 0.17273139655055839 -0.9849542057345424 -0.005392332661326583
0.9906289203927819 -0.07247224947504571 -0.11576750466973915 -0.06481037190819632 -0.8967940534090122 -0.43767572638125024
-0.9950423051619119 -0.08020331772804314 -0.05880679181423654 0.08530079391372516 -0.9948039133592254 0.05557830982369872
-0.948211852924214 0.2778899644843689 -0.15385528789386785 -0.31251756653754686 -0.8765757548568952 -0.3659886837082729
-0.9754101950979702 -0.21753752560055856 -0.035388928417319346 0.1232780122398312 -0.9923530932939135 -0.006153854742947081
0.9995865907975969 0.02869728007946245 0.0017645434758999776 -0.06600623231771373 -0.9887221460382696 -0.1344310054589301
-0.9968220304651622 0.07012740972597897 0.03778870180934971 0.09739366004912352 -0.9793167045958701 -0.17735068954396846
0.9989813459653769 -0.043434033420282146 -0.012237448837465642 -0.03551673508758129 0.8663851908439087 0.49811169692658525
0.9989592314101514 -0.043906610504319335 -0.012355708577883368 -0.06809276546523793 -0.9152284624474881 -0.3971400720366844
-0.9982228013944165 -0.051357119972667745 0.030227222902481928 0.14182203367365556 -0.9702304725571682 -0.19631439296741013
-0.017015114536385968 0.999723687817564 0.016218319696059174 0.9991677005074868 0.030057445563371175 -0.02757637084146925
0.020561860113610067 0.9995656779942315 -0.021110785977809438 -0.9997997870601071 0.01354170193691208 0.01473119490118017
0.002117768720143143 0.999964057566544 0.008209666905630577 -0.9921350767887679 -0.11777580078332082 -0.042389269340164494
-0.006193219444551721 -0.9979164433549467 0.06422161719176328 0.9751661690618112 0.015497828528149082 0.22093157318098103
0.0303483878885643 0.9991639258850395 -0.027393878194963125 -0.9984430163743769 -0.029689141136594696 -0.04722391292350915
-0.8439859623524143 -0.19956952013952267 -0.4978551013933168 -0.35978814804799636 -0.7900405511612427 -0.4963752774313332
-0.15596324564761702 -0.9836265327879228 -0.09030121816825261 0.9707865592125625 -0.11096633748901015 0.21274380930243034
-0.9985699890501204 0.02163405554680891 0.04888705972995495 0.04260259735710597 0.9903356010463135 0.13198642353918522
-0.04222569154476519 -0.9978721129144656 0.04968135707875254 -0.9994729332698998 0.01680815003995396 -0.027773040040599294
-0.015224416164410885 0.9985061625946574 -0.05247533147055338 -0.99731082455189 -0.05540685146207032 -0.04797082491149729
0.8579987636358899 -0.5122672438701786 0.03768809436592661 0.8579987636358899 -0.5122672438701786 0.03768809436592661
-0.13365409338427645 0.9897859365620201 -0.049602248998122815 -0.9929333013286193 -0.1006955781561706 0.06280015646830683
0.009474563804048904 -0.9989646023326072 0.04449669568832149 -0.9021367476179485 -0.0008114269197216182 -0.4314494526403573
0.9362564916850404 0.34302617457066237 -0.0758737460327176 0.2527598019741708 0.9650158189681639 -0.06969183343248837
0.9739328923925132 -0.06473261166878311 0.21740379505080343 0.26932336858240097 -0.9189865865830412 -0.28797322239381706
-0.9997520658647991 -0.021422142841461666 -0.006074421383691884 -0.11480702788747431 0.9500812621117699 0.2901119468959371
0.05779452273644833 -0.9966088114406015 0.05857192245963631 0.9879130501104281 0.08675642941816109 0.12845671401730036
0.02347481743356231 -0.999705128499208 0.0062120044142698816 0.9105062239741871 -0.01926160664619613 0.4130464944938698
-0.007297885622624276 -0.9999717431648223 0.0018038118931302763 -0.9741207051271898 -0.012928433670036887 -0.22565838660538592
-0.034307892201858405 0.9982532583158058 -0.04809782525793505 -0.9914758887971952 -0.13025664795838668 0.002961012741766516
-0.9979832169909452 -0.03435986239122781 -0.05337507340378958 -0.00198394944801027 -0.999519966064094 -0.030917654888753088
-0.19444253496972347 0.967879943229364 -0.1593753936116592 -0.7179602300391997 0.5330330814272285 -0.44767046159675666
0.9984107655862096 -0.0059417129481319775 -0.056041406199352425 -0.08219653903402141 -0.9936478766254603 -0.07686108409684914
-0.024511942376602 -0.9979078874471182 0.05982485145619414 -0.9986194147903511 -0.033733054128665035 -0.040265934273639246
0.02175174385241413 -0.999708895407773 -0.010439639933906238 -0.9926586492970343 0.09282467873492643 -0.07753957050142363
-0.050545722994014004 0.998463301744827 -0.022719263980833737 0.9931573250448057 -0.1082468473127667 0.04383089956517707
0.024626751412943387 -0.9974644241302393 0.06677009592156698 -0.9993090272561465 -0.020873449493312716 -0.03075332747239556
-0.030540340240482834 -0.998031868874979 0.05476930096242291 0.9865382458818673 -0.13410684415062712 0.09358228338893836
0.870406186451542 -0.48875481854361125 0.059260424714011405 -0.2003825567865826 -0.9791094192996505 -0.03451921167079355
0.028492660524777027 -0.9994365957463761 0.017738640847442706 -0.997823719793582 -0.05572414089684316 0.03525116081220825
0.03386809499829171 -0.9994089734318442 -0.005886931721506387 -0.998700805277707 -0.039211377132898996 0.03254488348421112
0.0427131349217851 -0.997946680978472 0.04772850332039868 -0.9999625939142508 -0.008243664554200128 -0.0026177790206417316
-0.9994351668895396 -0.03322637247111113 0.005035410299978727 0.09348850017074505 -0.9491036036267401 -0.30076942982716925
0.9999066383941592 0.0044654621985663395 0.012914106343281561 0.122302938664488 -0.9719343919970709 -0.20096151086044933
-0.07788063135878627 -0.9960509542640065 0.042627500148597494 -0.9041878507840237 -0.42394557925748483 -0.052100636489427324
0.9983309856108616 0.01312393591329149 -0.056240603440836284 0.1774776798178486 -0.9817202375346579 -0.06875353359186603
-0.04052835964637691 -0.9989928515431632 0.01925447039089038 0.9995427837902056 0.022661154423093268 -0.020017378777934445
0.049842447525933746 0.9986993766616158 0.010737107633084735 -0.9998392587912217 -0.003792260160844886 0.017523565353343144
0.010362589764862914 0.9999404867635803 0.0034116952353799275 -0.999532301216181 0.016715765573378134 0.025607850491238853
0.008662915005101902 -0.9995416963546461 -0.02900605371453884 0.7784582385180933 0.6226662681436762 0.07930630113260062
-0.819339596100151 -0.542089055397522 -0.18660675840028929 -0.819339596100151 -0.542089055397522 -0.18660675840028929
0.9977864374935924 0.06595304402939349 0.008510060934121193 -0.03413746189742055 0.9285911239420331 0.36953099765956554
0.12914845355777163 -0.9908512748768008 0.039171775791436284 0.9965268957554663 0.021570978598329356 0.08042909248701152
-0.998201685105462 0.02239633358346702 0.055603957544712486 -0.025859332693816493 -0.9978348491160957 -0.060472380489684334
0.1539275811605065 0.9839715071488857 0.09003539791229999 0.980266102832258 0.13074918218867426 0.14826671573569605
0.9981476515647346 0.060796217229537916 0.0022551377749449285 0.23363665291757857 -0.9721213397413576 0.019849816949752318
0.8777630933790794 -0.4788540226696727 -0.01519134209548915 -0.5362005212478427 0.8439573167193186 -0.015001618894959138
-0.11990218886437348 -0.9880693402436751 -0.09665631886204148 0.9895490373274931 -0.06642366343113765 0.12798671673505355
0.05416485643471222 0.9971176780851585 -0.05312724703454232 -0.9982510496321042 -0.03252497234651703 -0.04936565691105898
